235667.2700 3306715.6000 31.4900 207 118 124
235666.4600 3306723.3500 31.5800 54 29 48
235666.6200 3306724.3800 31.1800 49 27 48
235667.9700 3306717.7800 32.2200 216 131 129
235665.3800 3306714.7400 31.0500 221 153 155
235667.6200 3306713.8700 30.9400 199 116 117
235667.0800 3306724.8200 31.0000 56 29 50
235665.5000 3306718.5700 32.2700 59 30 49
235666.9000 3306721.7800 32.0800 53 27 50
235667.5700 3306723.7200 31.3600 57 31 52
235665.8500 3306724.5100 31.2400 45 26 43
235665.7100 3306721.2100 32.3400 48 26 46
235667.1000 3306715.8900 31.5200 236 161 162
235665.4100 3306715.9100 31.4000 81 36 44
235665.6900 3306721.9300 32.1000 49 25 42
235666.3000 3306722.8400 31.7400 48 28 48
235666.4600 3306723.8700 31.4400 50 28 47
235665.7900 3306717.3100 31.9100 61 34 52
235666.5500 3306716.8400 31.8400 226 141 141
235665.8200 3306716.3900 31.6000 75 38 56
235666.5900 3306717.4800 32.0800 198 120 124
235667.2400 3306716.6900 31.8500 217 124 129
235666.7000 3306725.2900 30.8800 51 30 48
235667.9300 3306722.6900 31.6800 60 29 50
235667.3100 3306724.4100 31.1700 55 30 49
235666.5800 3306723.4900 31.5300 56 29 49
235666.2600 3306724.6400 31.2300 50 29 49
235668.0100 3306715.5100 31.5100 217 127 130
235667.0500 3306715.7100 31.4600 228 152 156
235666.0300 3306715.9500 31.3800 106 45 54
235666.1300 3306718.6300 32.3100 62 33 54
235665.4600 3306714.5100 30.9300 218 143 148
235667.6100 3306715.2900 31.4000 210 137 141
235666.8300 3306724.3300 31.2200 51 28 49
235665.8700 3306718.0200 32.1300 63 33 55
235665.6900 3306722.5200 31.8800 43 25 42
235667.2600 3306724.1200 31.2200 53 29 51
235666.1600 3306716.2200 31.6000 202 114 122
235666.4700 3306716.6600 31.7700 237 151 154
235665.8100 3306717.6700 32.0100 61 34 55
235665.6200 3306716.0600 31.4700 73 38 57
235667.9700 3306717.7900 32.2600 216 131 129
235667.9200 3306714.1900 31.0600 216 136 140
235666.1000 3306714.0200 30.8400 210 129 135
235666.5400 3306714.6300 31.0900 206 121 127
235666.9900 3306717.6200 32.1700 215 126 132
235667.8400 3306717.5200 32.1700 195 113 118
235666.2800 3306715.4500 31.3400 185 113 114
235666.6800 3306723.8100 31.3800 51 27 47
235668.0400 3306724.1200 31.2600 63 32 53
235667.7800 3306716.9100 31.9500 221 137 142
235665.6100 3306724.7300 31.1300 45 27 44
235667.9600 3306724.7200 30.9800 60 31 50
235666.0800 3306714.5600 31.0100 199 118 120
235665.7200 3306725.4900 30.9200 50 30 50
235668.0100 3306719.6700 32.7100 196 93 101
235666.5800 3306719.4900 32.7100 71 35 52
235666.7100 3306719.5000 32.7000 78 36 51
235666.4100 3306719.3300 32.6400 69 36 57
235666.1900 3306720.3400 32.5900 51 26 45
235666.8500 3306720.3500 32.5100 63 31 54
235666.1900 3306721.0200 32.3600 51 28 47
235666.6500 3306719.7000 32.7700 69 32 50
235667.6700 3306720.6300 32.3700 92 47 60
235667.2000 3306719.2400 32.6700 223 139 145
235667.8400 3306718.4600 32.4700 224 152 154
235666.4400 3306720.5000 32.4500 58 29 47
235666.1400 3306719.7100 32.7700 65 37 55
235666.1300 3306719.3600 32.5900 60 31 54
235667.2700 3306718.6500 32.4600 221 146 150
235666.8800 3306719.0600 32.5300 217 140 144
235667.7500 3306719.0300 32.6500 193 105 110
235666.4000 3306720.5900 32.4700 58 29 48
235666.4700 3306719.8600 32.7400 57 26 48
235667.3300 3306718.7400 32.4800 216 126 132
235666.1000 3306719.6200 32.6900 61 30 50
235667.8700 3306719.0400 32.6700 195 123 127
235667.2500 3306720.5900 32.4300 62 30 50
235665.4900 3306719.0300 32.4400 57 28 48
235667.5400 3306718.8900 32.6100 220 133 137
235666.2700 3306718.9500 32.4500 62 32 54
235665.6400 3306719.5200 32.6400 54 28 48
235667.9300 3306720.6000 32.3500 178 92 99
235667.1000 3306720.6700 32.3700 61 32 53
235667.2900 3306719.9000 32.6600 191 105 118
235667.7000 3306719.2100 32.6800 220 139 143
235667.1000 3306720.1800 32.5700 71 33 51
235666.8300 3306720.8500 32.3700 58 29 50
235665.9700 3306718.6500 32.3700 59 30 51
235666.2000 3306720.3400 32.4800 51 26 45
235666.1700 3306720.7400 32.5200 51 28 46
235666.0500 3306720.7100 32.4700 48 27 44
235667.9900 3306719.9100 32.6100 199 115 121
235666.0000 3306719.0200 32.5200 57 30 53
235665.8700 3306719.4900 32.6100 57 30 51
235667.1800 3306718.3900 32.3600 222 144 146
235666.5800 3306720.4000 32.5200 62 31 51
235666.5000 3306719.7700 32.7300 61 29 48
235665.6400 3306720.8400 32.3800 46 26 43
235667.2600 3306719.3500 32.7000 232 146 152
235665.6700 3306720.0600 32.7300 49 24 44
235667.7900 3306718.5700 32.4800 198 110 116
235666.8100 3306718.6100 32.4400 216 138 147
235666.9300 3306720.8000 32.3600 58 29 50
235666.9000 3306720.2100 32.5400 65 33 53
235667.2800 3306720.2000 32.5500 73 31 43
235665.7000 3306719.5100 32.5900 55 29 51
235667.9500 3306719.7000 32.7300 188 99 105
235665.5700 3306718.8500 32.3600 55 28 49
235667.6400 3306718.8200 32.5700 240 155 153
235667.6500 3306719.9200 32.5800 201 120 128
235666.9900 3306720.1000 32.6200 66 31 49
235667.3300 3306718.7200 32.5400 207 120 125
235666.7600 3306719.2700 32.6300 77 36 47
235667.8000 3306718.9100 32.6000 233 156 155
235667.2500 3306718.2500 32.3600 188 109 112
235667.0200 3306720.8900 32.3700 60 31 51
235666.0000 3306720.6400 32.4700 46 26 45
235666.1800 3306720.0300 32.7000 52 27 48
235666.1700 3306719.5500 32.6600 61 31 52
235666.8900 3306718.9600 32.5600 223 145 152
235667.4400 3306719.5600 32.7600 200 106 105
235665.7700 3306719.3300 32.5300 53 28 50
235666.5400 3306719.8900 32.6500 59 28 48
235666.5100 3306719.9500 32.6900 60 29 50
235667.6400 3306719.7500 32.7000 211 126 127
235665.9100 3306718.8800 32.4600 57 31 53
235666.7900 3306718.7500 32.4300 216 135 144
235667.4000 3306719.9400 32.6900 170 86 93
235670.1700 3306716.7700 32.1100 222 150 151
235668.2700 3306721.8200 31.9600 217 129 135
235674.4000 3306721.7200 31.4300 180 86 86
235669.2400 3306715.7600 31.6700 232 150 152
235669.5200 3306719.8900 32.4700 206 118 122
235669.5700 3306720.6200 32.2400 197 111 110
235669.8700 3306723.4100 31.3100 179 89 94
235670.4400 3306713.7900 31.1400 235 154 155
235669.6900 3306714.6000 31.3300 197 116 116
235670.0400 3306718.6300 32.6900 237 141 135
235669.1900 3306714.6600 31.2900 237 153 152
235669.1000 3306723.7300 31.3000 177 85 92
235670.2000 3306716.6200 32.0100 219 132 136
235668.2800 3306721.9600 31.8800 198 103 106
235671.4300 3306721.4800 31.7500 204 118 123
235670.9300 3306722.9300 31.4000 204 114 118
235669.7400 3306724.3500 30.9700 179 93 101
235674.3400 3306721.9400 31.2800 211 128 132
235671.5600 3306721.9500 31.5900 213 135 140
235672.3700 3306715.7400 31.9100 199 116 115
235669.4900 3306723.6200 31.2300 211 120 122
235669.3200 3306716.9800 32.0900 199 111 115
235673.0800 3306723.8600 30.9000 176 98 103
235673.3900 3306720.0600 32.0600 189 91 94
235668.8400 3306724.7400 30.9400 190 109 119
235671.3400 3306720.6800 32.0800 182 83 93
235672.0300 3306723.1700 31.1300 218 129 132
235669.1200 3306717.5300 32.2700 209 111 117
235671.3000 3306721.2900 31.9000 176 95 99
235670.3700 3306718.4200 32.6400 238 157 157
235669.2300 3306720.1800 32.4200 210 114 122
235672.9700 3306723.0900 31.1600 220 130 131
235668.2200 3306717.5500 32.2100 196 104 112
235669.0400 3306722.7800 31.5600 171 77 87
235669.3300 3306721.5400 31.9900 202 103 109
235670.5500 3306723.2200 31.3000 182 85 88
235670.2700 3306717.4100 32.3000 232 156 152
235668.3000 3306718.9600 32.6600 231 151 150
235670.6400 3306720.4200 32.2200 158 76 79
235671.9600 3306722.6600 31.4100 200 100 104
235671.7900 3306723.0400 31.2700 195 101 102
235671.7900 3306722.3700 31.4400 188 97 99
235671.3300 3306722.8100 31.3700 211 124 129
235673.8300 3306719.7300 32.2000 224 128 125
235669.1100 3306714.9500 31.4100 226 152 156
235672.3900 3306718.1500 32.7200 244 160 160
235669.1200 3306721.7700 31.8200 166 77 83
235670.5200 3306722.6400 31.5000 199 116 118
235673.5600 3306721.2000 31.7100 210 123 127
235669.2600 3306718.6800 32.6600 219 129 133
235671.1600 3306720.4700 32.1200 158 67 77
235669.4200 3306718.4000 32.5700 230 145 149
235668.7700 3306713.7900 31.0200 199 124 126
235669.3400 3306723.6100 31.2500 213 129 134
235673.7100 3306714.9300 31.7600 177 147 145
235668.3200 3306724.7000 31.0600 64 30 50
235669.1200 3306719.7600 32.4500 194 94 94
235671.1800 3306720.2100 32.2300 178 94 99
235669.2200 3306714.1300 31.1800 213 144 147
235668.6000 3306716.7100 31.9400 223 148 151
235669.7200 3306718.2800 32.5200 219 141 143
235674.1600 3306720.2800 31.9700 177 95 100
235669.9300 3306719.7200 32.4200 212 124 125
235674.7300 3306721.6400 31.3600 218 124 121
235668.3800 3306716.1200 31.7000 218 122 125
235672.1000 3306717.0800 32.3600 238 162 160
235669.6500 3306720.5400 32.2500 214 121 125
235673.7400 3306714.8200 31.7000 218 158 153
235670.8500 3306724.0800 31.0200 204 121 122
235668.2700 3306716.4100 31.8400 195 115 118
235669.5800 3306721.0700 32.0900 186 88 96
235668.2900 3306721.7700 32.0100 198 106 114
235674.2500 3306720.6000 31.8700 177 77 79
235670.3000 3306716.6600 32.0600 217 134 133
235672.6700 3306716.1500 32.0300 241 163 159
235671.2100 3306714.9000 31.5300 190 104 106
235668.6400 3306722.2500 31.7100 172 72 78
235671.5200 3306719.0500 32.5700 155 71 78
235668.3200 3306718.1500 32.3300 201 105 112
235672.0800 3306714.8700 31.5600 243 168 167
235671.9500 3306719.3200 32.4900 192 99 106
235668.4100 3306724.3200 31.1200 61 33 44
235669.6800 3306720.6700 32.1400 223 130 134
235671.8100 3306717.9300 32.5500 227 133 136
235669.8800 3306715.0200 31.4700 234 166 165
235670.4700 3306715.8100 31.7300 206 113 119
235671.3200 3306723.4400 31.1300 207 119 125
235668.9100 3306721.9200 31.8800 197 117 120
235672.4200 3306714.6000 31.5100 208 108 110
235674.8300 3306723.4400 30.9000 159 80 90
235673.8800 3306717.2800 32.5300 238 154 155
235670.9400 3306721.8300 31.7100 202 108 115
235671.8500 3306721.6700 31.7000 179 96 103
235673.7300 3306721.0900 31.7600 174 89 89
235668.9700 3306715.4100 31.4700 205 114 117
235669.6700 3306723.4000 31.2800 162 74 81
235669.6000 3306724.5900 30.8800 208 120 126
235670.1700 3306717.6800 32.4200 233 145 144
235673.4300 3306717.2000 32.4300 194 111 111
235669.5500 3306718.5900 32.6200 224 128 128
235669.9000 3306714.6300 31.3100 208 113 117
235671.0800 3306723.7900 31.0400 204 118 124
235673.8000 3306720.4800 31.9100 167 76 81
235675.0700 3306719.9100 32.0200 196 179 173
235671.1900 3306723.5500 31.1200 212 126 132
235670.0000 3306722.3500 31.6400 197 121 124
235669.8100 3306717.1700 32.1800 186 113 115
235668.9400 3306717.1500 32.1500 237 154 156
235668.5700 3306716.6500 31.9300 241 163 164
235669.3900 3306715.7600 31.6700 224 142 145
235672.9100 3306715.1500 31.6900 249 176 169
235671.1700 3306721.5700 31.7900 192 112 118
235669.9300 3306722.0100 31.7600 203 101 109
235671.0200 3306721.8600 31.6900 171 78 85
235674.3300 3306720.2200 31.9800 181 77 73
235671.3200 3306713.8200 31.1500 231 138 129
235669.6200 3306724.3500 31.0300 187 103 109
235670.7500 3306721.2400 31.9300 202 117 124
235669.4500 3306724.5900 30.9000 195 120 127
235672.1500 3306721.6600 31.7200 191 104 110
235673.2400 3306722.6000 31.2600 191 98 102
235671.6200 3306723.4100 31.1700 206 117 122
235671.8000 3306723.0000 31.2800 208 117 120
235672.2200 3306720.0300 32.2600 204 116 119
235671.4200 3306714.4700 31.4300 214 126 130
235669.3100 3306722.6800 31.5700 193 110 115
235671.0900 3306716.4100 32.0300 207 113 115
235671.3900 3306723.2700 31.1400 173 78 73
235670.1500 3306717.3700 32.2800 234 143 154
235670.6900 3306720.1600 32.3300 209 116 122
235671.1000 3306721.9500 31.6800 208 127 130
235672.7000 3306716.7500 32.2500 206 116 119
235673.9500 3306719.4700 32.1500 163 82 85
235669.7200 3306717.4000 32.2900 195 107 110
235669.5800 3306714.8800 31.4100 228 145 148
235670.3200 3306723.2700 31.2600 195 104 101
235669.2100 3306715.5900 31.5800 227 148 149
235671.5300 3306719.9700 32.3000 204 119 124
235673.4400 3306720.4500 31.8800 174 78 81
235668.0900 3306714.9400 31.3800 212 125 125
235669.2000 3306722.1300 31.7800 153 74 76
235671.5900 3306722.0200 31.5900 205 130 134
235669.9600 3306723.5700 31.2100 205 121 127
235669.7900 3306717.3900 32.2900 229 143 145
235668.7000 3306717.3700 32.1500 236 154 157
235670.3000 3306722.0000 31.7600 184 97 100
235668.3500 3306722.6100 31.7100 192 106 118
235669.8400 3306717.0300 32.1000 227 143 143
235669.8300 3306715.5100 31.5700 231 149 151
235670.2600 3306716.4000 31.9700 207 110 116
235668.9300 3306724.6300 31.0000 177 91 98
235669.7500 3306723.5400 31.2400 214 117 123
235669.9000 3306721.8300 31.7900 161 75 80
235668.6800 3306721.3500 32.0100 192 96 103
235670.5900 3306723.2500 31.2300 191 97 98
235669.9000 3306722.2700 31.6300 168 75 81
235670.0000 3306714.1500 31.2000 229 150 147
235671.6800 3306722.1600 31.5400 178 99 102
235670.1400 3306722.5100 31.5300 204 110 115
235669.6800 3306716.0800 31.8300 234 156 158
235672.4000 3306716.3300 32.0700 243 161 160
235671.7700 3306721.2700 31.8000 205 105 110
235669.4900 3306723.9900 31.1500 181 87 95
235670.9400 3306716.8500 32.1200 239 160 159
235673.8200 3306719.6300 32.2400 203 108 108
235668.8600 3306714.6800 31.2800 232 156 160
235669.1800 3306724.7500 30.9000 183 109 115
235673.1800 3306722.7600 31.1900 204 118 125
235674.4100 3306722.7200 31.0700 210 126 130
235671.1100 3306722.0700 31.5700 221 128 132
235668.8500 3306723.4300 31.3700 193 111 117
235669.9200 3306720.5600 32.2300 174 90 88
235672.2100 3306720.7500 31.9800 222 127 130
235668.6800 3306716.6400 31.8900 235 155 153
235668.2500 3306715.0300 31.3700 196 105 115
235668.8700 3306720.6800 32.3000 194 100 103
235674.7600 3306719.2200 32.2100 141 110 106
235669.8100 3306713.7300 31.1200 205 115 115
235670.2600 3306720.2100 32.3300 172 81 87
235668.6400 3306722.6300 31.6700 204 116 123
235673.7000 3306714.9600 31.7700 181 152 151
235668.6300 3306724.4700 31.0300 160 88 95
235672.6300 3306722.9600 31.2300 202 114 117
235669.6200 3306723.7500 31.1700 175 79 86
235672.6800 3306723.6300 31.0200 184 80 86
235668.2900 3306714.4700 31.2000 226 145 148
235670.7500 3306716.2700 31.9900 221 126 129
235669.4800 3306716.1500 31.8000 216 118 119
235669.5000 3306717.5400 32.2800 213 132 136
235670.2700 3306723.3200 31.2800 161 80 79
235670.4800 3306722.7800 31.4500 151 64 68
235672.7400 3306721.4100 31.7400 172 83 87
235669.3200 3306720.9800 32.1300 209 126 124
235672.0600 3306719.8600 32.2900 172 81 85
235672.9300 3306719.8300 32.2600 210 124 126
235671.9500 3306716.4400 32.0800 239 164 165
235671.7300 3306715.6800 31.8400 217 114 109
235673.9500 3306715.8900 32.0600 191 139 136
235671.4400 3306714.0600 31.2900 239 160 157
235669.1000 3306717.8700 32.3400 226 141 137
235672.4500 3306714.6500 31.5300 219 118 120
235670.1700 3306720.8600 32.1000 206 119 128
235670.9600 3306720.7200 32.0500 208 121 128
235670.7600 3306714.0800 31.2200 238 162 150
235672.9700 3306716.3600 32.1000 205 113 104
235668.1600 3306724.2300 31.1400 63 33 53
235668.2000 3306722.9800 31.5600 64 28 46
235670.5500 3306717.4400 32.2700 224 139 136
235669.2100 3306722.9200 31.5100 189 101 109
235674.6800 3306720.5000 31.8500 204 105 113
235669.8900 3306713.9200 31.1400 208 120 119
235674.0200 3306723.1800 31.0100 200 114 115
235668.4600 3306723.5400 31.3700 102 46 56
235672.8800 3306716.0500 32.0400 209 110 113
235668.2200 3306724.8500 30.9200 57 31 50
235669.9900 3306724.3000 31.0000 194 117 121
235674.3200 3306720.3200 31.9600 196 104 109
235673.9600 3306715.1700 31.9500 163 149 141
235668.9200 3306724.3300 31.0600 197 106 113
235668.1000 3306723.7200 31.3100 62 33 53
235670.3600 3306721.6400 31.8400 206 119 124
235673.4600 3306721.0700 31.7500 187 88 91
235670.2800 3306720.6800 32.1600 167 82 88
235673.0000 3306716.0600 32.0700 243 165 163
235668.8900 3306715.6500 31.5900 216 134 135
235673.0300 3306715.5500 31.8900 250 175 175
235669.2400 3306724.2800 31.0800 162 78 84
235669.5900 3306720.7800 32.2700 206 116 124
235672.0400 3306715.9500 31.9100 206 112 117
235668.1500 3306716.2500 31.7600 235 159 161
235671.0900 3306723.8800 31.0500 202 112 115
235668.3600 3306723.4400 31.3800 66 36 48
235671.0300 3306715.4900 31.7100 199 111 116
235672.4100 3306723.1400 31.1700 184 83 83
235668.0700 3306714.3900 31.1700 198 114 116
235669.4800 3306717.3900 32.2000 227 139 140
235669.4600 3306721.9300 31.8500 163 81 85
235671.1600 3306717.3200 32.3200 208 106 113
235669.1800 3306722.9900 31.5000 213 125 129
235674.7200 3306720.9700 31.6700 202 114 114
235673.0700 3306720.1800 32.0900 161 70 72
235672.5100 3306720.1400 32.2100 202 115 120
235671.7300 3306716.9200 32.2200 249 167 160
235670.2500 3306716.4900 32.0000 242 156 156
235673.1400 3306715.4700 31.8700 244 166 163
235670.8500 3306714.6100 31.4100 212 120 118
235670.3500 3306714.5100 31.3600 209 116 115
235671.2500 3306715.0000 31.5400 211 109 116
235674.4000 3306722.2700 31.1600 197 107 110
235672.8900 3306716.4600 32.1600 246 173 166
235669.6100 3306723.1600 31.3500 175 91 96
235670.8800 3306723.6300 31.1300 216 130 136
235668.8900 3306722.2700 31.7400 195 112 116
235669.4300 3306720.3900 32.3300 202 111 112
235670.9200 3306721.6900 31.7900 182 105 109
235670.0200 3306713.9300 31.1600 216 115 125
235673.3600 3306722.4500 31.3000 160 65 75
235670.9900 3306720.4300 32.2200 184 88 91
235668.3300 3306716.5700 31.9200 221 136 140
235669.7400 3306717.6800 32.3400 239 167 168
235672.4100 3306714.9500 31.6200 241 165 160
235668.3900 3306724.1500 31.1500 63 33 48
235671.7400 3306724.1300 30.9200 180 92 95
235668.7200 3306724.0700 31.1600 169 83 92
235668.9700 3306724.2300 31.0700 188 93 100
235672.4000 3306723.5700 31.0300 217 118 118
235672.2600 3306723.4300 31.1400 215 118 121
235668.4400 3306714.3400 31.1600 235 149 145
235671.4700 3306723.5700 31.1100 195 106 110
235668.7200 3306721.4200 32.0500 157 66 78
235669.3700 3306721.0000 32.1000 184 92 93
235669.5800 3306716.5800 31.9100 216 120 122
235669.4800 3306721.8300 31.8900 185 96 100
235668.2600 3306721.8000 31.9400 219 131 136
235671.8200 3306722.0100 31.5400 152 75 78
235668.8900 3306723.2900 31.3500 179 86 97
235668.8400 3306723.8100 31.2600 168 87 92
235670.2100 3306722.7200 31.4600 218 124 125
235672.2700 3306722.3900 31.4400 190 97 100
235673.9300 3306721.3700 31.6100 220 123 129
235670.6700 3306720.9500 32.0200 182 96 101
235670.7200 3306720.4900 32.2200 219 135 139
235674.7600 3306719.8800 32.0500 203 110 111
235673.6800 3306719.6100 32.2400 219 119 122
235670.6500 3306717.0000 32.1800 240 157 155
235668.4800 3306716.5500 31.8600 200 117 119
235669.2500 3306716.0900 31.8000 231 140 143
235670.4500 3306715.4400 31.6300 241 157 156
235672.7600 3306715.6400 31.9100 218 155 156
235670.0100 3306715.0300 31.4900 224 144 144
235674.3000 3306720.0600 32.0000 165 64 67
235669.7700 3306720.0400 32.3300 164 82 87
235668.1900 3306715.8500 31.6000 223 148 150
235670.3100 3306717.1600 32.1900 212 111 118
235668.3900 3306723.1800 31.4400 141 63 69
235672.4600 3306723.2100 31.1000 205 111 108
235668.9400 3306723.1200 31.4500 165 86 89
235673.3300 3306716.8300 32.3200 216 126 127
235671.0300 3306720.5900 32.1700 168 77 85
235672.7100 3306722.1400 31.5000 225 130 129
235671.2000 3306722.0100 31.6600 185 93 95
235670.7100 3306720.0600 32.3200 177 85 87
235668.0600 3306721.9800 31.9200 62 28 44
235672.1000 3306723.1100 31.2300 161 70 77
235668.4100 3306718.0900 32.3200 233 152 156
235671.5800 3306723.1100 31.2300 214 122 127
235671.4600 3306714.9200 31.5900 230 148 150
235672.9900 3306723.1900 31.1400 208 121 122
235669.2200 3306715.1300 31.4900 200 108 113
235669.0400 3306721.9800 31.8500 179 96 101
235668.2300 3306723.6200 31.3600 63 33 51
235671.2600 3306722.7000 31.3900 188 94 95
235673.8600 3306721.2200 31.6700 214 126 122
235668.1100 3306721.0300 32.1500 174 103 112
235669.4700 3306722.2100 31.7100 204 120 125
235668.6700 3306716.5200 31.8500 242 155 157
235668.4700 3306721.7300 31.9900 180 94 99
235669.3200 3306716.1500 31.8200 201 109 115
235669.1900 3306721.9900 31.8200 168 74 83
235669.6400 3306716.0400 31.7600 228 140 142
235670.3700 3306720.4000 32.2200 200 108 116
235671.2700 3306720.0200 32.2700 212 125 131
235668.2400 3306723.5200 31.3400 61 34 50
235671.7400 3306721.9300 31.6700 206 130 133
235674.1200 3306722.1300 31.3400 213 123 128
235671.8900 3306714.9000 31.5600 241 157 149
235670.4000 3306720.6100 32.1100 164 83 85
235669.2500 3306720.2200 32.3000 200 102 110
235673.0300 3306719.7800 32.2400 197 113 115
235670.6000 3306716.1700 31.9300 226 153 148
235672.5000 3306713.8000 31.2600 229 138 137
235668.4000 3306721.2700 32.1100 204 112 112
235669.0700 3306715.8200 31.6700 212 125 125
235674.1200 3306716.1200 32.2600 209 181 175
235670.0000 3306721.0400 32.0800 179 100 112
235671.3000 3306721.8800 31.6600 157 73 79
235673.7300 3306716.4100 32.2400 202 117 115
235669.3100 3306714.4200 31.1300 229 153 154
235673.3300 3306723.8200 30.9100 164 92 86
235673.2200 3306723.0100 31.1500 207 120 123
235673.8300 3306723.0200 31.0700 206 115 113
235669.0400 3306716.3600 31.9000 215 115 121
235669.3200 3306723.7200 31.2500 185 89 96
235671.2600 3306721.4900 31.7600 180 87 97
235668.9000 3306723.5700 31.3400 191 108 114
235671.2600 3306720.1000 32.2800 196 106 112
235673.9000 3306720.3300 31.9500 173 77 83
235672.7000 3306720.1800 32.1400 192 108 113
235669.9800 3306716.8100 32.0500 244 157 159
235673.8200 3306715.6200 31.9700 211 180 178
235669.6900 3306714.9900 31.4400 214 131 135
235672.1900 3306715.9200 31.9700 229 150 153
235671.0700 3306714.4800 31.2700 227 135 138
235673.7500 3306716.8500 32.3400 243 162 154
235670.3200 3306716.1700 31.8600 244 167 168
235669.8200 3306715.6000 31.6200 202 122 125
235670.9700 3306723.9700 31.0000 205 120 122
235671.9700 3306714.1100 31.3400 220 123 125
235671.5700 3306724.1700 30.9000 179 85 88
235669.0800 3306716.9800 32.0900 242 161 159
235669.2600 3306717.4300 32.2100 195 106 115
235668.8000 3306715.2900 31.4500 211 117 121
235671.8500 3306720.8700 32.0100 181 85 84
235670.3500 3306714.5400 31.3800 208 116 112
235671.6400 3306722.3700 31.4800 199 105 106
235671.1400 3306721.1400 31.9500 160 78 81
235668.3100 3306717.7400 32.2600 222 138 142
235669.4200 3306715.7300 31.6500 228 151 154
235671.7900 3306723.2800 31.1900 180 94 104
235670.7100 3306724.3600 30.9200 187 86 95
235670.0700 3306724.1600 31.0400 219 126 132
235669.4700 3306724.0800 31.1000 205 116 120
235672.4300 3306723.6700 31.0000 222 126 130
235670.2800 3306713.9500 31.1900 242 160 159
235670.0500 3306714.4900 31.3700 228 142 140
235668.7400 3306716.5700 31.9500 217 136 140
235668.9700 3306721.8500 31.8700 160 78 80
235668.1200 3306721.9200 31.9300 91 31 43
235669.2900 3306722.2100 31.7000 210 122 129
235670.7300 3306722.2900 31.5700 217 123 127
235670.5500 3306722.9400 31.3800 218 122 121
235670.2600 3306722.9700 31.4000 206 121 119
235672.0200 3306722.5300 31.4100 223 124 125
235673.4100 3306721.9000 31.4700 213 121 125
235669.1800 3306721.4100 32.0300 184 82 90
235671.7300 3306720.0200 32.2900 206 112 116
235674.4100 3306720.2500 31.9300 222 133 126
235668.7300 3306715.9500 31.7000 218 140 139
235670.9900 3306716.1600 31.9800 222 145 141
235672.9500 3306716.3400 32.1500 207 115 107
235672.8600 3306716.0100 32.0400 202 121 117
235671.5200 3306714.6200 31.4700 243 162 153
235671.0500 3306720.0100 32.3300 198 105 106
235668.1800 3306714.4900 31.1800 239 153 157
235668.7100 3306716.0500 31.6400 243 164 163
235672.5200 3306713.9000 31.2600 231 155 152
235671.1400 3306722.1400 31.5500 224 134 134
235668.6700 3306717.3300 32.1000 221 129 135
235674.1200 3306721.2300 31.5000 156 62 63
235673.6900 3306723.1600 31.0000 197 104 112
235674.4300 3306722.9400 31.0200 208 126 121
235669.0700 3306716.7300 32.0000 224 132 134
235672.3100 3306720.6200 32.0300 201 116 122
235670.3200 3306721.8700 31.7600 210 122 127
235671.5500 3306721.9400 31.6200 196 114 120
235671.9100 3306716.8600 32.2400 224 140 141
235668.4900 3306716.3300 31.8000 230 147 149
235670.7700 3306719.9800 32.3400 227 135 131
235670.0800 3306715.3300 31.5400 227 141 142
235668.7700 3306722.7000 31.6100 192 95 89
235669.7500 3306721.0700 32.0700 202 114 119
235671.3900 3306721.9400 31.6300 194 107 110
235668.2200 3306724.3200 31.1300 66 34 53
235668.8800 3306723.4800 31.4000 170 92 96
235669.0600 3306723.3800 31.3600 161 76 83
235674.0300 3306721.0000 31.7500 187 92 100
235669.1900 3306714.4600 31.2300 207 119 122
235673.0800 3306714.6600 31.5700 222 138 131
235672.0400 3306723.9300 30.9800 203 125 129
235669.9000 3306724.0700 31.0400 178 94 101
235668.5800 3306714.3400 31.1800 235 153 158
235668.1300 3306724.8400 30.9300 58 31 49
235671.0300 3306724.2000 30.9300 215 127 123
235668.8100 3306723.8800 31.2100 172 97 99
235671.4900 3306724.0900 30.9400 201 112 115
235670.5300 3306723.9400 31.0800 214 119 125
235673.3800 3306723.4700 30.9700 186 105 109
235672.2400 3306723.3500 31.1800 221 128 129
235674.0900 3306723.3800 30.9500 199 112 117
235671.3100 3306713.7800 31.1500 238 148 137
235668.5900 3306715.6500 31.6100 226 146 147
235669.4000 3306716.8300 32.0500 224 137 147
235669.3300 3306714.8200 31.4000 239 156 155
235668.4200 3306714.9500 31.3600 229 154 157
235669.7300 3306717.1200 32.1700 226 143 145
235669.2500 3306717.2600 32.1600 196 107 110
235668.2300 3306721.0500 32.2000 197 124 127
235669.5900 3306721.4800 31.9600 220 129 129
235670.2200 3306721.6500 31.8500 201 101 92
235671.7800 3306721.8400 31.6100 164 75 83
235668.8400 3306721.9400 31.8800 163 73 78
235668.3100 3306722.3300 31.7800 192 97 106
235669.1800 3306722.4400 31.6800 173 85 90
235669.5700 3306722.5800 31.5700 212 124 131
235669.5500 3306723.3900 31.3100 188 90 99
235670.6300 3306723.3300 31.2500 203 104 106
235671.4200 3306722.2100 31.5900 158 67 74
235673.7700 3306722.4100 31.3000 157 72 76
235671.6800 3306722.0500 31.6300 166 81 87
235674.2200 3306722.2600 31.2600 156 59 60
235669.1800 3306721.2800 32.0700 186 98 98
235674.6600 3306720.7500 31.7500 193 105 109
235671.6100 3306720.3000 32.1700 199 107 115
235674.5200 3306720.5400 31.8600 194 112 118
235673.6500 3306720.4100 31.9400 206 111 116
235672.5600 3306720.3200 32.1100 206 124 127
235668.3600 3306717.6400 32.2400 202 110 118
235668.2600 3306717.3400 32.1000 213 127 130
235671.2100 3306716.7500 32.1100 238 150 149
235668.6700 3306716.4800 31.8700 243 157 159
235671.0900 3306716.7000 32.1200 245 172 176
235671.0200 3306716.4500 32.0500 240 172 171
235670.2900 3306716.0000 31.8700 246 162 161
235672.6600 3306716.2200 32.0400 237 154 152
235669.5800 3306715.8600 31.7100 190 111 114
235672.8000 3306715.9100 31.9700 249 189 186
235674.0000 3306715.3900 31.9800 180 169 162
235670.3400 3306714.9400 31.5100 245 175 177
235673.0700 3306715.1900 31.7700 215 130 128
235669.2800 3306714.7200 31.3500 201 114 115
235671.8600 3306714.9500 31.6200 210 115 112
235671.5000 3306714.5100 31.4200 229 148 145
235671.2100 3306721.7700 31.7600 202 123 127
235669.4600 3306722.3400 31.6700 178 91 97
235669.6000 3306720.3200 32.3300 222 125 126
235672.3900 3306719.6100 32.3400 223 136 139
235670.4400 3306717.4200 32.3100 247 161 159
235671.4500 3306724.2500 30.8600 181 91 90
235670.0300 3306722.7300 31.4300 201 100 105
235672.3400 3306721.9100 31.6300 201 124 128
235668.8800 3306722.0500 31.8400 148 63 69
235669.3600 3306720.8200 32.0900 195 99 96
235673.4000 3306716.7200 32.2600 246 164 160
235671.7700 3306721.5200 31.7200 212 125 125
235673.4500 3306723.6100 30.8400 173 85 91
235673.0300 3306721.0900 31.7700 197 99 103
235669.2700 3306717.0300 32.0400 234 154 155
235672.0400 3306715.6000 31.8300 233 146 136
235668.5600 3306722.4300 31.8100 211 117 117
235673.6700 3306719.3900 32.3300 154 73 75
235673.2600 3306723.6800 30.9600 215 123 131
235671.1700 3306715.1300 31.6000 244 157 157
235674.5100 3306721.9100 31.2800 216 128 133
235671.0300 3306722.0100 31.6500 183 83 91
235670.9200 3306720.4100 32.1900 184 102 106
235670.9800 3306720.1900 32.2800 204 124 127
235671.0700 3306722.6000 31.4500 198 108 107
235669.7000 3306724.0900 30.9700 157 66 74
235674.7400 3306720.4400 31.8600 193 107 112
235670.4000 3306714.4100 31.3500 231 155 155
235669.6200 3306714.1200 31.1400 217 124 128
235668.7100 3306723.2600 31.4100 151 70 76
235668.4900 3306724.7300 30.9500 62 29 46
235669.7700 3306720.5500 32.2600 166 80 85
235671.4000 3306723.0600 31.2800 200 117 120
235673.8600 3306714.7000 31.8900 190 181 173
235671.9500 3306721.8700 31.6500 170 79 82
235668.3200 3306716.8700 32.0300 208 120 121
235674.8000 3306721.1800 31.5900 229 133 129
235673.5900 3306720.1600 32.0000 217 122 123
235668.2400 3306723.4900 31.4000 61 34 49
235673.9600 3306720.2600 31.9800 212 125 129
235670.7300 3306720.2200 32.3100 173 77 86
235673.7800 3306715.5300 31.9600 219 172 168
235669.1900 3306714.3800 31.2500 210 115 121
235674.6000 3306719.8000 32.0900 223 127 128
235672.8700 3306713.9200 31.3400 185 108 108
235669.0300 3306722.9600 31.5500 206 118 124
235668.8300 3306723.2900 31.4300 190 110 117
235669.3600 3306713.7700 31.0400 201 117 124
235672.9900 3306716.0200 32.0400 243 162 161
235669.1000 3306716.2300 31.8700 228 142 145
235671.2400 3306714.7400 31.4700 244 165 164
235669.9400 3306715.6500 31.6400 196 106 111
235669.3000 3306717.3200 32.1600 234 152 153
235671.7700 3306721.8800 31.5900 175 98 102
235673.1900 3306722.6200 31.2900 179 95 101
235671.7700 3306716.2300 32.0700 224 150 152
235673.7600 3306721.9400 31.3800 204 119 117
235671.7300 3306721.8500 31.6400 193 121 122
235668.1700 3306715.8100 31.5900 223 151 151
235668.7600 3306724.8900 30.8800 151 94 94
235672.7100 3306723.3900 31.0600 205 115 115
235668.6900 3306715.4000 31.5400 241 155 153
235671.5000 3306721.6700 31.7000 212 123 132
235672.3000 3306720.3600 32.1400 178 92 99
235668.6200 3306716.2300 31.7700 234 147 149
235674.4800 3306721.8300 31.4200 197 113 117
235670.2800 3306721.5300 31.9100 198 96 106
235668.8700 3306721.7900 31.8500 190 109 115
235674.8600 3306722.1000 31.2000 205 124 123
235674.8700 3306719.0400 32.3200 195 178 176
235671.9500 3306715.8300 31.9200 241 154 150
235672.8500 3306714.5900 31.5800 201 106 108
235670.7900 3306721.1300 31.8900 184 96 104
235668.0600 3306721.0500 32.1000 146 79 87
235669.3400 3306724.4100 31.0000 193 109 116
235670.9300 3306721.0900 31.9900 185 103 108
235671.1300 3306721.3200 31.8000 212 123 130
235671.9000 3306723.6000 31.0800 167 72 81
235672.9000 3306721.7200 31.6000 219 127 128
235668.7200 3306723.0700 31.4700 212 116 115
235669.7900 3306723.5700 31.2300 220 126 131
235670.0800 3306721.8300 31.7900 151 59 60
235671.5300 3306722.1600 31.5800 165 80 86
235668.9300 3306713.7400 31.0000 212 138 136
235669.1000 3306716.8900 32.0400 210 130 129
235672.6700 3306721.9300 31.5100 202 119 122
235669.4600 3306717.3800 32.2200 227 139 140
235674.0300 3306716.5300 32.3000 219 162 157
235672.3400 3306716.2000 32.0700 240 157 155
235670.7600 3306717.3100 32.2600 234 149 147
235670.2500 3306722.6100 31.5300 174 92 97
235668.3500 3306722.7700 31.6100 175 96 99
235668.8600 3306714.4200 31.2600 195 106 115
235670.3000 3306715.0300 31.5100 213 117 121
235672.9000 3306722.6000 31.3100 148 63 68
235674.0900 3306720.4900 31.8200 153 58 64
235671.3600 3306723.4900 31.1900 183 101 104
235671.1500 3306720.8600 32.0100 190 121 125
235671.1800 3306722.8000 31.3900 210 122 128
235673.1300 3306713.9500 31.3700 234 159 161
235670.6400 3306721.0700 32.0100 159 82 85
235672.8500 3306723.1700 31.1500 195 103 110
235673.1200 3306716.4500 32.1900 198 109 109
235669.4600 3306722.1300 31.7300 197 109 117
235672.6600 3306720.0700 32.2100 212 118 126
235670.7600 3306721.9600 31.6400 203 112 117
235668.8600 3306717.8700 32.3100 226 142 142
235668.8700 3306724.2200 31.1200 178 101 104
235668.6100 3306722.2000 31.7700 161 74 78
235672.2000 3306716.2700 32.0300 247 164 161
235670.4100 3306721.1200 32.0400 207 119 118
235669.3200 3306723.4200 31.3500 195 118 119
235668.2500 3306716.2000 31.7200 231 146 140
235670.4100 3306721.9400 31.7500 170 80 85
235673.9700 3306723.5200 30.9100 210 126 126
235668.7600 3306716.6300 31.9500 194 110 110
235669.5400 3306723.3400 31.3100 173 80 87
235673.7700 3306720.7500 31.8600 212 123 124
235672.8400 3306720.1100 32.1500 192 116 118
235670.7000 3306715.7200 31.8100 238 157 153
235671.5900 3306722.4500 31.3900 182 90 94
235673.5400 3306716.3900 32.1600 248 183 181
235673.9800 3306720.5700 31.7900 214 115 115
235670.2400 3306721.3100 32.0200 177 79 90
235673.3400 3306721.7600 31.5500 170 72 73
235671.0700 3306723.9800 31.0500 181 89 94
235674.7800 3306720.4000 31.8900 216 135 137
235669.9400 3306714.5300 31.3400 242 168 166
235668.6100 3306714.9000 31.3500 229 151 153
235671.8500 3306720.5100 32.1100 202 114 120
235673.0000 3306722.1900 31.3700 170 79 85
235669.6300 3306719.5900 32.5800 184 108 112
235668.8900 3306720.0100 32.5100 184 98 106
235671.7800 3306717.7600 32.4800 238 158 156
235669.1200 3306718.9400 32.7600 219 127 135
235668.4500 3306719.5800 32.6800 204 102 109
235670.1100 3306718.0100 32.4900 242 160 164
235672.1200 3306718.9300 32.6000 187 93 99
235671.1700 3306719.0700 32.5000 220 125 126
235668.1400 3306718.3200 32.4100 234 150 150
235670.2500 3306719.8000 32.4100 225 131 134
235672.3200 3306719.2100 32.5000 200 114 118
235668.4300 3306719.5200 32.6200 188 87 94
235669.5400 3306719.5400 32.5800 195 104 110
235672.2100 3306718.7200 32.6900 181 95 99
235670.7200 3306718.3200 32.6600 204 114 116
235670.6500 3306717.4900 32.4000 236 148 150
235673.0900 3306718.0400 32.7200 239 148 151
235668.4200 3306718.4300 32.5500 229 138 137
235674.0200 3306719.0900 32.3900 195 92 95
235669.8900 3306717.7200 32.3800 243 157 160
235670.0900 3306720.0500 32.4000 157 65 64
235671.1700 3306717.6100 32.4200 217 122 125
235670.5500 3306719.9200 32.3900 186 93 99
235671.0300 3306718.5000 32.7200 242 159 153
235669.7400 3306719.2500 32.5700 177 67 77
235670.6800 3306719.2800 32.5900 176 88 90
235669.9200 3306718.7400 32.7200 222 128 125
235669.9900 3306717.9500 32.4200 221 126 131
235672.0000 3306717.2200 32.3700 240 156 156
235672.1700 3306717.4600 32.4100 247 168 164
235670.3600 3306717.7600 32.4100 241 163 162
235672.1300 3306717.9100 32.5600 230 143 145
235674.6000 3306717.9100 32.7600 160 138 134
235668.6300 3306718.8900 32.6900 206 126 127
235670.7100 3306719.1600 32.6000 189 90 94
235671.2500 3306717.8100 32.5300 206 108 113
235672.1600 3306717.3700 32.3900 237 160 154
235672.9400 3306717.7100 32.5600 207 120 129
235668.0800 3306720.2700 32.5200 193 108 114
235668.1300 3306718.2600 32.4300 229 146 149
235670.6900 3306719.9300 32.3700 167 72 76
235670.7000 3306718.4500 32.7100 239 159 154
235670.1500 3306717.8400 32.4700 205 112 119
235669.7100 3306719.9700 32.4700 187 102 108
235672.7200 3306719.1100 32.4600 226 134 137
235671.7500 3306718.1000 32.6500 222 145 153
235674.5400 3306718.3300 32.5700 157 120 117
235669.6300 3306718.7500 32.6700 246 159 159
235671.7000 3306719.3900 32.4200 213 128 131
235669.1300 3306719.8900 32.5800 164 68 73
235673.2500 3306718.0000 32.7100 234 144 139
235669.8000 3306719.2500 32.7200 213 117 121
235668.7300 3306718.4900 32.5700 216 110 118
235671.9900 3306718.0500 32.6400 236 144 145
235668.6000 3306718.1800 32.4100 233 156 156
235668.8800 3306717.9300 32.3600 210 119 124
235668.8000 3306718.9400 32.7100 215 132 139
235671.9300 3306719.1700 32.5600 196 102 111
235668.7300 3306718.4100 32.4900 218 118 123
235668.8600 3306718.1800 32.3900 230 145 143
235670.9600 3306719.1100 32.5600 161 72 76
235669.0700 3306720.0800 32.4600 215 128 135
235670.2800 3306719.9800 32.4000 186 96 100
235672.5200 3306719.4400 32.4200 201 117 120
235674.3400 3306717.2800 32.5400 244 185 181
235668.7200 3306718.4900 32.4900 216 110 118
235672.1900 3306717.6800 32.5200 199 107 111
235669.4800 3306718.1600 32.5200 208 121 125
235669.5700 3306719.9200 32.4900 176 94 97
235669.3500 3306718.2700 32.5100 219 132 138
235669.6700 3306719.3800 32.6100 194 106 109
235672.8300 3306719.3400 32.4100 192 105 103
235669.6500 3306718.6000 32.6800 218 139 145
235668.4900 3306718.0200 32.3500 210 125 130
235674.4500 3306717.5700 32.7400 163 127 125
235673.9900 3306717.1700 32.4600 246 171 166
235674.2300 3306716.8500 32.4800 235 178 166
235670.8200 3306717.8600 32.4700 220 133 134
235668.2400 3306719.7700 32.6500 203 117 119
235668.7000 3306719.6700 32.6200 195 112 114
235670.9600 3306719.7200 32.4400 175 88 94
235670.1300 3306718.4900 32.6600 214 113 115
235668.3400 3306720.2100 32.5000 215 129 134
235671.2700 3306718.7000 32.7100 150 62 68
235668.5000 3306720.3000 32.4400 214 128 126
235669.3900 3306719.8700 32.5400 180 87 95
235669.6400 3306719.8400 32.4700 210 121 128
235668.9700 3306719.3200 32.7400 163 71 80
235671.7900 3306719.5600 32.4300 175 92 94
235669.6800 3306719.2700 32.6600 207 113 118
235669.8900 3306718.4700 32.6100 238 157 153
235670.5200 3306718.4600 32.6600 246 162 156
235672.9800 3306718.6700 32.6100 188 85 92
235669.6500 3306717.9900 32.4300 217 137 141
235672.3600 3306717.7900 32.5700 200 111 111
235672.7300 3306717.7300 32.5500 231 152 155
235670.8100 3306717.4500 32.3500 214 131 131
235674.3700 3306717.0800 32.5300 200 189 187
235672.9900 3306717.8200 32.6200 200 110 109
235670.3300 3306718.2300 32.5900 238 153 154
235672.4700 3306717.8000 32.5500 229 141 148
235672.6500 3306718.3800 32.5900 152 44 50
235668.0900 3306720.1600 32.5500 152 73 79
235672.3800 3306718.5300 32.7200 183 89 87
235670.8200 3306719.7900 32.4200 176 84 89
235669.8300 3306719.1000 32.7100 190 90 97
235673.8900 3306718.3500 32.6200 184 75 75
235670.6100 3306718.3100 32.6200 226 130 126
235673.7100 3306717.3700 32.5100 237 150 150
235674.1900 3306718.2400 32.6300 192 97 99
235669.0900 3306719.2800 32.7100 181 90 96
235668.4800 3306718.7700 32.6300 211 122 124
235669.7700 3306719.9000 32.4700 177 87 95
235670.4800 3306719.3300 32.5700 212 127 131
235674.0200 3306718.7600 32.4800 214 120 123
235673.7400 3306717.2900 32.4700 247 178 183
235672.3300 3306718.9900 32.5600 198 101 106
235673.5500 3306717.1500 32.4100 235 157 153
235674.1700 3306718.5000 32.5800 177 96 102
235672.5600 3306718.9700 32.5400 193 112 112
235672.0400 3306719.1900 32.5100 141 57 61
235670.2300 3306718.2800 32.5800 200 112 112
235673.0600 3306717.4500 32.5000 206 107 103
235668.1200 3306718.7200 32.5900 221 146 149
235670.7000 3306718.3000 32.6400 217 125 131
235668.9100 3306720.3400 32.4100 161 69 76
235669.8300 3306719.3900 32.5900 198 103 105
235668.9900 3306719.8400 32.5500 193 102 98
235674.0100 3306717.0500 32.4300 219 133 132
235669.8400 3306720.2800 32.3900 200 99 101
235669.7000 3306719.9300 32.4800 200 120 124
235675.4000 3306720.3800 31.7500 220 211 207
235675.5700 3306722.8200 31.0400 175 99 97
235675.9200 3306723.1900 30.8700 149 142 135
235674.9300 3306721.9700 31.2800 174 87 89
235675.2400 3306720.2900 31.8700 190 175 170
235675.0700 3306720.4300 31.8500 162 106 115
235675.0900 3306721.2100 31.5700 197 112 115
235675.7100 3306721.5200 31.4400 146 129 125
235674.9700 3306720.7700 31.7100 174 81 80
235675.7300 3306722.8300 31.0000 97 67 66
235675.4300 3306722.5500 31.1000 190 105 103
235675.7700 3306722.2700 31.1600 170 155 138
235675.2800 3306721.7900 31.3700 206 129 131
235674.9900 3306721.4600 31.4600 212 114 112
235675.9700 3306722.6000 31.6300 241 242 240
235675.0400 3306720.5700 31.6900 160 88 96
235675.5400 3306722.6600 31.0700 156 86 87
235675.7700 3306723.1700 30.8900 178 134 131
235675.2200 3306720.4400 31.8300 221 200 195
235675.0300 3306720.0100 31.9800 151 115 112
235675.2600 3306720.8000 31.6900 154 113 103
235675.2000 3306719.8500 32.0000 182 159 161
235675.9300 3306722.5700 32.4400 244 242 239
235673.3800 3306712.9000 33.2100 54 50 58
235673.3900 3306712.8900 32.9600 54 50 58
235668.1700 3306719.3200 32.8200 202 109 110
235670.1400 3306718.7400 32.8300 231 139 146
235666.7000 3306719.5500 32.7800 78 36 50
235665.4600 3306720.0200 32.8400 52 26 44
235667.4200 3306719.4600 32.8600 230 134 138
235668.2700 3306719.2600 32.8500 232 138 138
235667.1500 3306719.6300 32.8000 201 107 108
235667.9800 3306719.4100 32.8400 217 117 122
235667.3100 3306719.5500 32.8200 196 107 111
235670.0900 3306718.9000 32.8300 205 112 110
235667.5700 3306719.5700 32.7900 156 65 74
235666.3300 3306719.8500 32.7800 56 27 48
235667.9700 3306719.5100 32.7800 147 57 64
235667.2200 3306719.6100 32.8100 190 96 100
235667.2400 3306719.5500 32.8700 221 127 134
235665.9400 3306719.9000 32.8400 56 31 50
235666.4200 3306719.8000 32.8000 63 30 51
235666.2700 3306719.7900 32.8400 61 33 54
235667.4600 3306719.3500 32.7900 220 136 140
235665.5100 3306719.9200 32.8300 58 32 50
235665.6300 3306720.0000 32.8100 54 29 49
235667.0500 3306719.5300 32.8300 229 133 135
235666.4400 3306719.6500 32.7900 69 36 56
235666.8100 3306719.6800 32.8300 67 27 38
235667.0100 3306719.6600 32.8000 174 82 87
235667.2700 3306719.5600 32.7900 203 113 118
235667.8500 3306719.4000 32.8400 210 115 120
235666.9600 3306719.7000 32.7900 159 87 87
235666.8200 3306719.7300 32.7800 58 23 37
235667.9100 3306719.2900 32.8100 229 137 138
235667.4400 3306719.4700 32.8200 230 134 138
235666.3800 3306719.7300 32.8100 67 36 56
235666.5200 3306719.7400 32.7900 62 30 48
235666.6500 3306719.7600 32.7800 63 29 46
235667.6300 3306719.5100 32.7900 200 109 110
235667.3100 3306719.4500 32.8100 219 127 133
235667.7100 3306719.3800 32.8700 235 137 142
235666.0800 3306719.7700 32.7800 61 33 54
235666.3200 3306719.7900 32.8200 61 32 52
235666.2000 3306719.7800 32.8000 63 34 55
235666.3400 3306719.8200 32.8000 59 29 50
235665.4900 3306719.8900 32.8600 54 28 46
235668.0300 3306719.3600 32.7900 223 128 129
235665.7500 3306719.8800 32.8200 57 30 51
235666.5400 3306719.6300 32.8100 70 34 53
235667.0700 3306719.6700 32.7800 180 89 93
235667.5400 3306719.4700 32.8700 231 134 139
235667.6900 3306719.4900 32.8400 199 100 102
235667.0900 3306719.6500 32.8000 180 89 93
235667.8400 3306719.5000 32.7900 172 73 80
235666.3800 3306719.6400 32.8300 67 33 53
235666.9400 3306719.6900 32.8100 159 87 87
235666.9600 3306719.5900 32.8100 215 132 131
235665.6900 3306719.7800 32.8000 55 28 48
235666.1500 3306719.6800 32.8100 62 32 51
235667.1400 3306719.6800 32.7900 158 73 76
235667.0500 3306719.5900 32.8200 229 132 133
235667.1900 3306719.6000 32.8000 216 119 122
235665.9900 3306719.8300 32.8300 59 32 53
235666.2300 3306719.7600 32.7900 67 36 56
235666.8600 3306719.6500 32.8500 120 59 69
235667.4600 3306719.6200 32.7900 171 80 83
235665.8300 3306719.8900 32.8000 56 30 50
235666.8700 3306719.6000 32.8300 200 121 125
235667.1200 3306719.6300 32.8200 202 109 110
235666.8100 3306719.6000 32.8200 106 52 61
235666.9400 3306719.6100 32.8400 205 125 122
235665.8400 3306720.1700 32.7800 49 26 45
235665.6800 3306719.9400 32.8200 55 28 49
235667.1400 3306719.5600 32.8600 229 131 131
235667.8500 3306719.2800 32.8500 210 122 123
235667.7200 3306719.4000 32.8100 237 137 143
235665.7000 3306719.8800 32.7900 59 32 53
235666.7500 3306719.6600 32.7800 72 39 49
235667.1700 3306719.5400 32.8400 233 136 137
235666.6600 3306719.6400 32.8300 74 34 53
235666.5400 3306719.6600 32.8400 71 36 54
235668.0500 3306719.2400 32.7800 230 143 144
235665.9200 3306719.8800 32.8000 58 34 53
235666.0600 3306719.8300 32.8200 59 32 52
235666.4300 3306719.6900 32.8000 70 37 57
235667.4900 3306719.6300 32.7800 164 66 73
235666.7500 3306719.5900 32.8100 75 36 46
235667.8900 3306719.3700 32.8700 219 120 124
235669.6400 3306718.9500 32.8200 223 120 126
235668.6400 3306719.0800 32.7900 240 149 146
235669.3300 3306719.0000 32.8200 206 113 117
235670.4000 3306718.9100 32.7900 155 60 64
235669.0100 3306719.0100 32.8000 223 123 129
235668.3900 3306719.3700 32.8000 166 73 74
235669.3500 3306718.9600 32.8100 220 123 125
235669.6000 3306718.9800 32.8300 221 119 125
235669.8900 3306719.0000 32.7900 175 75 80
235670.4000 3306718.7800 32.8100 233 137 139
235668.1100 3306719.4200 32.8400 167 75 76
235668.7200 3306719.1100 32.8100 212 119 123
235668.2800 3306719.3300 32.8500 209 117 114
235668.4400 3306719.3400 32.7800 169 75 76
235668.1600 3306719.2500 32.8100 221 131 134
235668.0700 3306719.3700 32.8600 222 128 129
235668.8300 3306719.1200 32.8500 233 141 141
235669.1200 3306719.0200 32.8600 228 135 139
235668.5600 3306719.2800 32.8000 209 111 114
235669.8500 3306719.0200 32.7800 182 80 87
235669.9100 3306719.1000 32.8000 224 127 128
235669.1500 3306719.0000 32.8900 215 120 125
235669.3600 3306719.1000 32.7900 162 66 68
235668.8600 3306719.0900 32.8300 226 136 137
235669.6800 3306719.0700 32.7900 128 39 43
235669.2200 3306718.9500 32.8100 230 138 141
235669.8300 3306718.9200 32.8400 235 143 143
235668.5400 3306719.1800 32.8200 231 134 138
235668.9600 3306719.2100 32.7800 162 69 77
235668.2800 3306719.1900 32.8100 223 128 129
235668.7500 3306719.3500 32.7900 202 113 118
235670.3900 3306718.6900 32.8200 243 151 153
235670.2700 3306718.7700 32.8200 232 139 138
235670.1000 3306718.8800 32.8600 220 123 124
235669.7200 3306718.7900 32.8300 220 113 118
235670.0400 3306718.7700 32.8400 234 132 133
235669.9700 3306718.8700 32.8400 231 134 132
235669.2400 3306719.0300 32.8700 224 130 134
235669.4600 3306718.9100 32.8200 227 131 133
235673.6100 3306713.8000 33.2000 150 136 129
235674.5300 3306717.9000 33.4100 152 137 130
235672.9900 3306718.1400 32.8100 235 137 138
235674.6700 3306717.9700 33.6000 152 137 132
235672.6300 3306718.1700 32.7900 232 136 133
235673.8600 3306717.9200 32.8500 238 138 138
235672.2600 3306718.4200 32.7900 180 83 89
235674.0100 3306717.9300 32.8300 222 120 122
235674.6000 3306717.9100 33.1200 160 138 134
235674.2200 3306717.8500 32.8500 238 140 139
235671.9900 3306718.4300 32.8200 175 88 94
235674.0900 3306715.8700 33.3700 179 167 161
235672.5300 3306718.2400 32.8400 219 123 116
235672.0000 3306718.3200 32.8000 216 121 124
235672.1000 3306718.3300 32.8500 234 140 138
235672.4000 3306718.3500 32.8100 191 96 94
235670.9000 3306718.7000 32.8400 221 121 126
235670.6800 3306718.8100 32.7900 158 60 66
235671.1200 3306718.5700 32.8300 225 122 124
235672.4000 3306718.2200 32.8200 235 138 137
235672.6700 3306718.2500 32.8400 218 120 117
235673.5500 3306718.0500 32.8300 220 119 120
235672.1400 3306718.4400 32.8100 181 83 84
235673.2800 3306718.0500 32.8700 236 141 133
235673.6000 3306713.7800 32.9500 149 135 128
235673.1200 3306718.1500 32.8200 215 126 134
235674.8000 3306718.7700 33.2900 179 152 149
235674.6500 3306717.9200 32.8500 150 133 129
235674.3600 3306716.8300 33.2200 151 150 144
235674.1400 3306715.9000 33.6000 174 159 157
235670.6400 3306718.6500 32.8700 227 132 131
235671.3800 3306718.5400 32.8400 218 115 109
235671.0100 3306718.5300 32.8100 242 157 152
235672.7500 3306718.1800 32.8100 235 140 135
235673.0200 3306718.2000 32.8300 197 93 96
235674.8000 3306718.7500 33.0300 170 144 141
235674.4400 3306717.6600 32.8100 94 62 64
235674.5900 3306717.6700 32.7900 137 127 121
235673.4100 3306718.0000 32.8300 236 136 138
235674.5000 3306717.8800 32.8500 166 134 125
235671.4600 3306718.3400 32.8100 241 159 158
235670.5200 3306718.6700 32.8100 224 128 130
235670.7600 3306718.6900 32.8500 227 128 133
235671.0600 3306718.7200 32.8000 199 110 108
235672.7500 3306718.3400 32.7800 173 62 67
235674.5100 3306717.7700 32.8600 168 159 150
235671.0000 3306718.5600 32.7900 235 144 140
235671.2400 3306718.5800 32.8400 231 134 135
235671.5200 3306718.6000 32.8300 189 88 86
235671.6700 3306718.6200 32.7900 187 93 92
235673.6100 3306717.9000 32.7800 222 129 122
235674.3700 3306717.8700 32.8200 152 78 77
235671.2100 3306718.6300 32.8600 223 124 120
235671.8600 3306718.4200 32.8100 239 180 171
235670.8700 3306718.5500 32.7800 238 149 149
235672.0000 3306718.4800 32.7800 149 64 68
235671.8100 3306718.6100 32.8100 180 86 90
235674.8300 3306718.8000 33.5200 163 154 150
235673.8400 3306718.0300 32.8000 157 59 61
235673.5600 3306718.0100 32.8300 227 129 126
235673.6000 3306718.0800 32.7900 184 85 85
235672.2600 3306718.3400 32.8200 220 120 121
235674.1000 3306715.8500 33.1100 170 164 154
235671.6100 3306718.3900 32.7800 230 140 142
235671.2000 3306718.7300 32.7900 156 60 63
235674.6600 3306717.7800 32.8500 178 169 166
235674.0900 3306717.8400 32.8300 229 131 131
235673.8300 3306714.7700 33.1600 175 157 150
235675.2200 3306719.9600 33.3900 178 155 157
235675.5500 3306721.8300 33.5800 174 127 121
235673.3600 3306712.9300 33.7200 136 129 129
235675.1300 3306719.9300 33.6800 159 126 127
235674.1500 3306715.9500 34.3500 168 156 154
235674.1600 3306715.9200 33.8500 174 159 157
