235755.7500 3306724.1600 37.4900 163 164 162
235756.7800 3306724.1900 37.4900 156 155 152
235753.3400 3306723.7000 37.2800 174 174 174
235754.4300 3306723.7300 37.3000 200 198 198
235755.0800 3306723.7500 37.3400 163 170 168
235755.3300 3306723.0000 37.0400 186 188 189
235755.9500 3306723.0200 37.0400 181 184 184
235756.9500 3306723.0500 37.0200 168 167 164
235755.0600 3306725.4100 37.1300 149 156 157
235754.9600 3306725.2900 37.2000 102 102 108
235754.6600 3306724.9500 37.3100 102 104 106
235751.7100 3306718.9300 37.5400 231 245 249
235753.5500 3306718.9700 37.5100 78 89 106
235753.0900 3306718.9600 37.5400 254 255 255
235754.8500 3306723.3700 37.0700 188 187 186
235754.3900 3306723.3700 37.0600 189 188 188
235756.0800 3306723.4100 37.1400 192 192 190
235753.3500 3306723.5800 37.1500 181 177 178
235753.0600 3306723.0000 36.9800 183 185 185
235753.2100 3306723.6100 37.2100 184 184 181
235753.5200 3306724.9700 37.3400 161 161 165
235752.2000 3306718.9100 37.6100 255 255 255
235756.4600 3306724.9000 37.3400 131 124 128
235756.1700 3306722.3500 36.7300 153 153 152
235756.4400 3306723.5000 37.1500 169 169 170
235756.7800 3306725.0000 37.3800 139 138 140
235757.0500 3306725.0000 37.2400 117 115 119
235757.1400 3306725.4200 37.1200 169 175 177
235757.2000 3306725.6600 37.0900 113 113 117
235757.2700 3306724.6200 37.5400 113 113 120
235757.4200 3306725.3000 37.2000 160 161 164
235757.5000 3306725.6800 37.0400 105 110 113
235757.4900 3306722.9400 36.9700 190 195 194
235757.8000 3306724.2300 37.4700 157 162 161
235757.8800 3306724.5800 37.5100 154 160 160
235758.0900 3306725.5300 37.1500 136 146 148
235758.1300 3306725.7200 37.0700 120 125 128
235758.3800 3306725.1700 37.2800 165 166 169
235758.4800 3306725.5800 37.1500 162 165 168
235751.8600 3306722.6300 36.8600 171 171 176
235751.8200 3306722.7500 36.9000 158 158 163
235754.6600 3306725.8800 36.9800 125 130 127
235755.8500 3306725.9100 36.9200 110 111 115
235756.5500 3306725.9300 37.0100 170 174 177
235756.9200 3306725.9400 36.9700 111 111 115
235756.0200 3306725.7700 36.9900 138 138 142
235758.4500 3306725.8400 36.9900 145 146 147
235752.4100 3306725.1700 37.2000 135 134 141
235752.9000 3306725.1800 37.2500 159 161 165
235753.0900 3306725.1800 37.2400 167 170 171
235754.4100 3306725.2200 37.2800 164 165 170
235754.5900 3306725.2300 37.2500 147 151 155
235755.6400 3306725.2500 37.2600 169 172 175
235758.6200 3306724.9900 37.3300 125 124 131
235758.9900 3306725.0000 37.3100 141 146 149
235753.0100 3306724.7400 37.4100 137 138 143
235753.2500 3306724.7400 37.4400 134 139 144
235753.4300 3306724.7500 37.4100 120 120 125
235756.9800 3306724.2000 37.4800 212 210 208
235757.5900 3306724.2200 37.4900 203 202 203
235759.0500 3306724.2600 37.5600 153 155 154
235751.6900 3306724.0000 37.4300 183 181 183
235752.1500 3306724.0100 37.4600 168 168 167
235756.1000 3306723.7800 37.3100 200 198 199
235757.1500 3306723.8100 37.3600 194 194 192
235757.5300 3306723.8200 37.3200 150 148 149
235758.3500 3306723.8500 37.3500 196 195 192
235757.2100 3306723.0500 37.0800 136 138 138
235757.3800 3306723.0600 37.0400 152 151 151
235757.7900 3306723.0700 37.0400 164 165 164
235758.8000 3306723.1000 37.0600 182 182 180
235758.8600 3306722.9100 37.0300 146 145 151
235754.0300 3306724.2100 37.4200 189 193 193
235753.8200 3306723.9700 37.2800 196 196 195
235753.6100 3306723.7100 37.1900 138 138 141
235753.4400 3306723.5200 37.1700 153 157 156
235756.7000 3306725.3900 37.1900 157 160 166
235756.6100 3306725.2900 37.2000 114 120 122
235756.4900 3306725.1600 37.2700 180 178 178
235752.8700 3306718.9600 37.5500 254 255 255
235752.1900 3306718.9500 37.5800 255 255 255
235751.9800 3306718.9500 37.5700 255 255 255
235753.5900 3306718.9900 37.4600 98 109 124
235753.4600 3306718.9900 37.5000 102 114 126
235753.8200 3306723.3600 37.1000 206 206 207
235753.5900 3306723.3600 37.1000 162 159 163
235753.2500 3306723.3500 37.1100 193 192 193
235753.1400 3306723.3500 37.1100 137 140 140
235754.9900 3306725.0700 37.3200 147 146 151
235754.8200 3306725.4500 37.1400 137 138 143
235754.6900 3306725.8700 36.9500 158 163 158
235757.1500 3306722.3000 36.7100 189 188 189
235756.0700 3306723.9300 37.3200 205 204 204
235753.0200 3306724.4400 37.6100 172 173 175
235754.4400 3306724.6900 37.4500 163 169 173
235757.0600 3306725.3600 37.1700 113 110 115
235757.6200 3306725.8800 36.9700 155 156 162
235751.9900 3306724.1800 37.4600 163 160 162
235752.2600 3306724.9000 37.4400 159 158 158
235752.3400 3306724.0100 37.3700 201 202 203
235755.3200 3306724.6300 37.5400 140 141 148
235756.7000 3306722.7800 36.8700 190 191 190
235752.5600 3306725.8200 37.0100 157 159 163
235758.0400 3306725.8300 36.9800 181 182 185
235758.2900 3306722.6100 36.8400 144 144 145
235757.1700 3306722.5800 36.8800 168 168 169
235754.9000 3306722.3800 36.7400 183 182 184
235755.0400 3306723.7800 37.3200 201 201 201
235756.9100 3306723.8400 37.3300 140 137 138
235753.9800 3306723.7200 37.2800 200 200 199
235756.7000 3306723.7400 37.3000 195 198 196
235757.5600 3306723.6900 37.2800 177 177 177
235756.7100 3306723.6300 37.2700 200 200 200
235753.1600 3306723.4200 37.2000 142 143 143
235757.1300 3306723.5400 37.2300 176 169 169
235758.9500 3306723.6000 37.2400 189 188 188
235757.1300 3306723.7700 37.2400 179 178 175
235754.9300 3306723.7300 37.2700 191 190 191
235751.9200 3306723.6800 37.2300 149 151 155
235756.0600 3306723.7800 37.2600 166 165 165
235754.0100 3306723.7500 37.2600 188 188 189
235757.2900 3306723.8100 37.2700 194 192 190
235758.5700 3306725.2200 37.2600 115 114 122
235754.1500 3306723.2500 37.0600 190 189 189
235754.3100 3306723.9500 37.3400 193 192 194
235754.4500 3306724.5500 37.5700 189 192 195
235754.7000 3306725.6700 37.1000 149 150 154
235754.3900 3306722.2500 36.7000 180 179 181
235754.5400 3306722.9000 36.9500 170 169 171
235754.8400 3306724.1800 37.4500 161 158 159
235758.8200 3306724.3500 37.5200 198 198 200
235758.8800 3306724.6000 37.4900 149 152 154
235759.0600 3306725.4000 37.2300 139 139 139
235758.9700 3306722.8700 36.9200 186 187 188
235755.3500 3306723.9000 37.2500 199 198 197
235752.2500 3306718.6100 37.4500 223 224 230
235758.3600 3306723.6300 37.2200 193 193 187
235755.0500 3306725.8200 37.0800 159 158 163
235753.9400 3306723.7700 37.2800 176 174 174
235752.8500 3306718.6100 37.3900 232 233 240
235752.0300 3306725.7100 37.1000 116 114 122
235752.0100 3306723.7200 37.2700 184 187 187
235755.3600 3306725.7600 37.0300 143 144 150
235754.5400 3306724.8100 37.4100 157 156 158
235755.9500 3306724.5700 37.5200 145 147 155
235754.7100 3306723.2000 37.0600 159 159 161
235754.2600 3306724.4400 37.5700 191 192 195
235753.3800 3306724.4200 37.5200 192 195 197
235758.5000 3306724.7100 37.4800 166 168 172
235757.5900 3306724.6900 37.4500 145 146 148
235756.6400 3306724.6700 37.5000 99 100 105
235755.6600 3306724.8100 37.4600 138 144 147
235754.7300 3306724.8000 37.5100 171 177 179
235752.9500 3306724.7600 37.4800 123 127 132
235757.1600 3306724.9500 37.3800 165 173 174
235753.5100 3306724.8800 37.4200 167 167 169
235758.1200 3306725.1300 37.3200 129 129 133
235757.2900 3306722.2000 36.7500 188 189 188
235757.1900 3306722.4400 36.8200 160 160 162
235757.0100 3306722.9000 37.0000 188 189 188
235752.1300 3306722.9000 37.0100 178 178 179
235752.5400 3306722.9100 36.9900 151 150 149
235754.6700 3306722.9800 37.0000 148 147 148
235751.8900 3306722.6900 36.9000 162 160 167
235752.1500 3306722.7000 36.9300 187 187 189
235753.8600 3306722.7500 36.9300 176 177 178
235754.4800 3306722.7700 36.9300 172 172 173
235755.1200 3306722.7900 36.9400 156 155 156
235755.5600 3306722.8000 36.9500 152 149 151
235755.7600 3306722.8100 36.9500 191 189 188
235756.1800 3306722.8300 36.9600 142 142 142
235756.3600 3306722.8300 36.9400 191 190 192
235758.2700 3306722.3000 36.7200 134 140 137
235752.9100 3306722.9300 36.9500 192 192 191
235752.9000 3306722.8100 36.9600 184 181 182
235752.8900 3306722.7200 36.8700 182 179 181
235752.8800 3306722.6300 36.8100 179 178 178
235753.2000 3306718.8900 36.7400 255 255 255
235752.0000 3306718.6300 37.5400 218 218 225
235757.7900 3306724.3900 37.5900 154 164 163
235757.7500 3306724.5000 37.6400 164 164 167
235757.0600 3306725.7300 37.1200 126 124 129
235756.9500 3306725.9400 37.0300 147 149 153
235758.7300 3306723.1900 37.0600 143 149 147
235758.4300 3306723.9100 37.3100 144 143 143
235758.3000 3306724.2500 37.4700 170 164 166
235758.1000 3306724.6700 37.4900 119 122 128
235757.7900 3306725.2400 37.3000 129 129 133
235757.4700 3306725.8300 37.0800 138 141 145
235758.9900 3306723.6800 37.2700 200 199 200
235758.8300 3306724.0500 37.3700 207 207 208
235757.0000 3306725.2900 37.1900 160 160 164
235757.2000 3306725.3000 37.1800 105 110 112
235758.6300 3306725.3400 37.2200 179 179 183
235752.0100 3306725.1000 37.3100 171 171 176
235752.8400 3306725.1200 37.2700 133 133 138
235753.7300 3306725.1400 37.3100 119 120 125
235754.3000 3306725.1600 37.2400 145 145 150
235754.7300 3306725.1700 37.2600 170 174 177
235754.9300 3306725.1800 37.2500 119 119 130
235754.0500 3306724.7700 37.3900 122 124 125
235754.6800 3306724.7800 37.3900 151 156 154
235755.1000 3306724.8000 37.3900 125 126 129
235755.5000 3306724.8100 37.3800 161 161 166
235755.7000 3306724.8100 37.3700 104 110 114
235757.5100 3306724.8700 37.3400 129 133 133
235757.9100 3306724.8800 37.3400 181 184 185
235758.5000 3306724.8900 37.3400 170 170 176
235751.6100 3306724.6200 37.5100 126 129 133
235751.9800 3306724.6300 37.4400 144 146 150
235752.6800 3306724.6500 37.4900 103 103 108
235753.2800 3306724.6700 37.4500 92 94 103
235752.5600 3306718.9800 37.5400 254 255 255
235752.4500 3306718.9700 37.5400 254 255 255
235752.1700 3306719.0700 37.3100 229 230 239
235759.0100 3306723.1500 37.0400 152 155 156
235758.8900 3306723.1500 37.0500 141 135 141
235758.5300 3306723.1400 37.0500 179 180 182
235756.1000 3306723.1000 37.0200 196 193 194
235755.9800 3306723.1000 37.0200 156 158 157
235752.8000 3306723.0500 37.0300 191 194 193
235757.0100 3306723.4200 37.1600 186 187 189
235756.1100 3306723.4000 37.0800 193 193 196
235756.7400 3306723.3700 37.1100 171 170 174
235756.0800 3306723.3600 37.0400 191 192 190
235754.4600 3306723.3300 37.0900 156 156 156
235753.4400 3306723.3200 37.0900 155 155 156
235751.9000 3306723.3400 37.1400 154 158 160
235759.0500 3306723.5700 37.1800 149 149 148
235758.8100 3306723.5700 37.1800 185 186 184
235758.4600 3306723.5600 37.1900 147 142 143
235758.3400 3306723.5600 37.1800 194 195 189
235758.5200 3306723.6900 37.2200 200 200 199
235753.4800 3306725.5700 37.1100 140 141 144
235753.3400 3306725.5700 37.1800 156 160 163
235752.9000 3306725.5600 37.1900 164 164 169
235752.4500 3306725.5500 37.1900 148 154 158
235752.0100 3306725.5400 37.1700 132 133 147
235751.9000 3306725.5400 37.1600 107 109 115
235758.5100 3306725.8100 37.0600 180 180 185
235758.3700 3306725.8100 37.1100 141 145 147
235758.0500 3306725.8000 37.0500 172 177 180
235757.3000 3306724.9400 37.4000 152 153 159
235757.2000 3306725.1600 37.3200 125 128 131
235756.8600 3306725.9400 36.9800 165 168 171
235754.8400 3306723.6800 37.2900 155 155 155
235758.2300 3306723.7700 37.2800 205 204 203
235758.3400 3306723.8200 37.2500 193 192 189
235757.4800 3306722.4000 36.7700 185 184 187
235754.7500 3306722.7400 36.8400 173 172 172
235755.0800 3306723.0800 36.9900 164 164 165
235755.8400 3306723.2000 37.0500 172 173 174
235755.8700 3306722.2900 36.7300 150 150 153
235756.6000 3306725.5100 37.1500 124 129 131
235758.4000 3306724.9100 37.3600 107 107 118
235758.6900 3306725.7600 37.0300 134 136 143
235758.9000 3306725.7800 37.0800 140 142 144
235758.9300 3306725.4300 37.1900 173 171 174
235755.9700 3306722.7800 36.9000 181 187 186
235751.9200 3306722.4900 36.7800 150 148 151
235755.5600 3306723.1500 37.0600 141 140 139
235753.8800 3306722.9500 37.0500 157 156 156
235756.3800 3306723.0300 37.0500 189 190 188
235758.4400 3306725.8700 37.0400 139 141 142
235758.4300 3306724.5500 37.5800 209 208 209
235758.3500 3306723.5300 37.1700 196 197 191
235753.4800 3306718.7000 37.6000 107 121 122
235753.7700 3306725.7800 37.1000 148 150 150
235751.8200 3306723.4600 37.1600 158 158 161
235752.2100 3306725.1500 37.3200 122 125 126
235752.3400 3306725.7300 37.1000 125 127 136
235753.4200 3306722.2400 36.7000 163 161 162
235753.5600 3306722.8200 36.9100 151 151 153
235753.5800 3306722.4500 36.7500 168 174 175
235753.6500 3306724.9000 37.3800 174 175 178
235753.7500 3306725.3200 37.2500 118 120 125
235754.6000 3306722.7400 36.8700 187 188 189
235755.3100 3306725.8500 37.0000 173 173 177
235754.9700 3306722.7500 36.8800 165 165 164
235755.2600 3306723.9800 37.3400 156 158 157
235756.5700 3306724.9100 37.3500 149 159 159
235756.6200 3306725.1500 37.3100 131 132 137
235756.6700 3306725.3500 37.2500 162 163 166
235756.7200 3306725.5600 37.1900 128 130 139
235756.8900 3306725.2200 37.2700 120 122 125
235757.2900 3306722.8300 36.9200 185 185 185
235757.4300 3306723.4300 37.1400 189 189 189
235757.7200 3306724.6800 37.4200 147 147 151
235757.5400 3306722.7500 36.8900 160 156 157
235757.6700 3306723.3100 37.0800 174 175 175
235757.9900 3306724.7000 37.4500 138 137 144
235758.8900 3306725.1100 37.2800 124 119 122
235758.9400 3306725.3300 37.2300 154 153 155
235758.9800 3306724.7900 37.4100 140 150 150
235759.0100 3306724.9300 37.2900 99 106 110
235759.1100 3306725.3800 37.2000 166 168 170
235752.8800 3306722.5000 36.8500 178 179 179
235751.9500 3306722.9100 36.9400 168 162 166
235756.2800 3306723.1500 37.0000 161 165 166
235758.3800 3306723.5400 37.1600 200 200 199
235753.4900 3306718.6300 37.4900 75 91 105
235752.6000 3306718.6200 37.5000 224 226 232
235752.0600 3306718.5900 37.4200 148 152 158
235753.3100 3306718.8000 37.5800 255 255 255
235751.7100 3306718.8800 37.5600 231 244 249
235753.0100 3306718.9800 37.5100 253 255 255
235758.2700 3306723.2900 37.1000 159 158 158
235757.3500 3306723.2700 37.0700 182 181 181
235756.4200 3306723.2500 37.0600 188 188 190
235755.5000 3306723.2400 37.0800 196 195 195
235756.1400 3306723.2700 37.0600 160 159 163
235753.4200 3306723.2300 37.0600 147 148 149
235759.0400 3306723.3900 37.1200 172 173 173
235757.1700 3306723.3600 37.1200 178 182 180
235756.2500 3306723.3500 37.1200 185 191 188
235755.3500 3306723.3300 37.0500 186 189 188
235754.4300 3306725.0600 37.3800 171 174 176
235753.5300 3306725.0400 37.3700 176 177 180
235752.6500 3306725.0200 37.3300 124 121 130
235752.4900 3306725.2100 37.3000 120 123 128
235758.9300 3306725.5100 37.1900 175 173 176
235757.9800 3306725.4900 37.1900 143 140 145
235752.5000 3306725.3700 37.2400 131 135 139
235757.1300 3306725.5500 37.1600 172 176 179
235754.3700 3306725.4900 37.1900 141 141 145
235751.6800 3306725.4300 37.2200 162 164 171
235757.2500 3306725.6600 37.1000 139 140 143
235758.7500 3306725.8200 37.0500 142 143 146
235755.9400 3306725.7600 37.1200 175 175 180
235755.0200 3306725.7400 37.1300 168 168 171
235754.9200 3306725.9100 37.0500 125 128 132
235753.1100 3306725.8700 37.0500 114 116 119
235755.5900 3306724.7900 37.4100 150 151 155
235757.4700 3306722.8000 36.9300 185 186 186
235757.3700 3306723.0400 37.0100 152 151 151
235757.4400 3306722.8600 37.0100 187 188 187
235757.6200 3306722.8700 36.9800 193 191 192
235759.0100 3306722.9100 36.9800 139 147 145
235751.9600 3306722.5300 36.8600 161 160 159
235752.6200 3306722.5500 36.8800 152 164 163
235754.7600 3306722.6200 36.8800 166 167 166
235754.9800 3306722.6300 36.9000 169 166 167
235755.1800 3306722.6300 36.9000 177 186 184
235755.3300 3306722.6400 36.8400 186 186 187
235756.8500 3306722.6900 36.9200 182 182 183
235757.6800 3306722.7100 36.9400 151 153 153
235758.0900 3306722.7300 36.9600 185 190 188
235758.8900 3306722.7500 36.9600 144 144 144
235753.1600 3306722.3700 36.8200 176 176 175
235753.5600 3306722.3900 36.8000 173 177 178
235754.0300 3306722.4000 36.8300 172 170 175
235755.0500 3306722.4300 36.8200 188 188 188
235755.4800 3306722.4500 36.8200 185 185 183
235755.8900 3306722.4600 36.8300 144 144 146
235757.1900 3306722.9000 36.9800 166 169 168
235757.1800 3306722.8200 36.9000 170 173 173
235757.1800 3306722.7100 36.8700 180 180 182
235751.8300 3306718.5300 36.9100 146 145 150
235752.7400 3306718.6500 37.5600 252 255 255
235752.7000 3306718.7600 37.6100 255 255 255
235753.2200 3306718.5900 37.2300 171 176 186
235753.5400 3306718.8600 37.5200 99 114 127
235751.4900 3306723.5500 37.2400 184 185 192
235751.8600 3306723.5900 37.2700 181 184 187
235751.5500 3306724.3100 37.5100 187 189 193
235752.5700 3306723.0800 37.0300 165 165 163
235752.4500 3306723.4000 37.2200 189 190 191
235752.3600 3306723.5600 37.1900 162 161 166
235751.8700 3306724.7000 37.4700 122 122 131
235751.5400 3306725.2900 37.2500 153 159 166
235752.8700 3306723.6800 37.2400 183 181 176
235752.8400 3306723.7800 37.3200 142 140 140
235752.7700 3306723.9300 37.3200 180 180 179
235752.2100 3306725.1000 37.3300 124 125 127
235752.0900 3306725.3100 37.2400 110 107 116
235753.3900 3306723.1600 37.0900 171 177 178
235753.3000 3306723.3900 37.2000 146 145 148
235752.9500 3306724.2200 37.4900 196 196 195
235752.7400 3306724.6600 37.4900 143 144 151
235752.6500 3306724.8300 37.4400 133 133 137
235758.6800 3306724.4700 37.6300 166 177 175
235758.4100 3306724.9400 37.3600 108 108 119
235759.0700 3306724.4000 37.5700 168 168 168
235758.5600 3306725.3400 37.2400 118 117 123
235758.2400 3306725.9200 37.0400 111 110 116
235758.8900 3306725.5300 37.1800 136 134 138
235758.7900 3306725.7200 37.1300 185 189 192
235753.6600 3306725.8500 37.0300 166 167 171
235755.3200 3306725.8900 37.0200 171 172 176
235752.4400 3306724.4300 37.5900 178 179 182
235753.3100 3306724.4500 37.5900 161 163 165
235753.6600 3306724.4600 37.5300 188 187 191
235752.3400 3306723.9800 37.4200 202 203 203
235752.7500 3306724.0000 37.4100 180 180 179
235752.9900 3306724.0000 37.4300 151 157 155
235754.9400 3306724.0600 37.4800 158 161 163
235755.2700 3306724.0700 37.3800 144 143 143
235755.5300 3306724.0700 37.4400 186 192 192
235756.1500 3306724.0900 37.4500 165 172 172
235756.8100 3306724.1100 37.4900 152 154 150
235757.9700 3306724.1400 37.4400 176 177 176
235758.6100 3306724.1600 37.4900 142 142 143
235759.0100 3306724.1700 37.5000 157 160 161
235752.1500 3306723.9300 37.3900 168 169 166
235752.8300 3306723.9500 37.4100 157 157 159
235753.4600 3306723.9600 37.4100 152 147 148
235754.0700 3306723.9800 37.3700 150 146 149
235755.3500 3306724.0200 37.4000 199 198 197
235755.5500 3306724.0200 37.4000 193 196 196
235755.7600 3306724.0300 37.4000 175 172 173
235757.2200 3306724.0700 37.4300 142 142 144
235757.8400 3306724.0900 37.4500 167 164 164
235758.4500 3306724.1100 37.4600 147 148 148
235759.0300 3306724.1200 37.4400 155 158 159
235751.7900 3306723.9000 37.3900 142 145 146
235751.8700 3306723.5200 37.2400 180 182 186
235753.1800 3306723.5600 37.2600 156 156 152
235754.2100 3306723.5900 37.2200 142 142 142
235754.4900 3306723.6000 37.2900 144 141 141
235755.3000 3306723.6200 37.2600 190 186 186
235756.3700 3306723.6500 37.3100 202 201 199
235756.7300 3306723.6700 37.2600 186 187 187
235756.9700 3306723.6700 37.2900 158 159 160
235757.7700 3306723.7000 37.3000 193 192 193
235758.9400 3306723.7300 37.2800 153 151 152
235752.2500 3306723.5000 37.2200 125 127 128
235753.7600 3306723.5400 37.2300 143 144 145
235753.9600 3306723.5500 37.2200 188 188 187
235754.3800 3306723.5600 37.2100 158 156 155
235754.6400 3306723.5700 37.2600 168 167 166
235755.4200 3306723.5900 37.2200 158 160 161
235757.5000 3306723.6600 37.2500 170 171 173
235752.5800 3306718.6200 37.4600 224 226 232
235752.4500 3306718.6200 37.5100 223 228 231
235751.8200 3306718.6000 37.3900 151 152 157
235753.3900 3306718.6300 37.4700 157 184 199
235759.1000 3306723.3000 37.0900 182 183 182
235758.7500 3306723.2900 37.0800 146 149 148
235757.7100 3306723.2700 37.0500 149 149 148
235757.4700 3306723.2700 37.0600 192 199 197
235757.0100 3306723.2600 37.0400 184 185 186
235756.8800 3306723.2600 37.0800 139 147 147
235756.7600 3306723.2600 37.0900 138 137 143
235755.8500 3306723.2400 37.0600 137 136 138
235754.9300 3306723.2300 37.0700 171 173 172
235754.7200 3306723.2300 37.0300 170 173 173
235754.4800 3306723.2200 37.0600 143 144 146
235754.3800 3306723.2200 37.0400 174 173 171
235753.4700 3306723.2100 37.0400 156 152 153
235753.3600 3306723.2000 37.0300 185 187 188
235752.9100 3306723.2000 37.0400 200 198 198
235752.5700 3306723.1900 37.0400 158 156 158
235751.6800 3306723.1800 37.0300 170 170 174
235754.0400 3306723.3700 37.1200 163 163 161
235757.8500 3306723.4100 37.1000 162 163 160
235757.6200 3306723.4100 37.0900 214 214 213
235757.7400 3306723.6100 37.1400 183 180 182
235757.6100 3306723.6100 37.1800 207 206 206
235757.4900 3306723.6100 37.2100 199 199 200
235756.6800 3306723.6000 37.2000 175 175 174
235753.4800 3306723.6100 37.1600 151 151 152
235753.1300 3306723.6100 37.2100 155 156 155
235752.6900 3306723.6000 37.2000 149 145 146
235752.4700 3306723.5900 37.1900 176 179 182
235751.7000 3306723.5800 37.1700 171 174 178
235751.5700 3306723.5800 37.2100 171 175 179
235758.9500 3306723.7800 37.2400 188 187 189
235758.8100 3306723.7800 37.2900 188 186 187
235758.1100 3306723.7700 37.3000 157 155 154
235757.5500 3306723.7600 37.2300 151 150 151
235757.3200 3306723.7600 37.2300 212 215 214
235756.9800 3306723.7500 37.2200 185 184 185
235756.7300 3306723.7500 37.2600 178 182 182
235756.0700 3306723.7300 37.1800 199 197 196
235755.3700 3306723.7200 37.2200 182 186 186
235755.2600 3306723.7200 37.2100 166 165 165
235754.6900 3306723.7100 37.1900 164 162 161
235754.5700 3306723.7100 37.2300 205 203 198
235754.2300 3306723.7100 37.2200 158 158 158
235753.9000 3306723.7000 37.2100 155 158 158
235758.2300 3306723.9700 37.3000 210 211 207
235758.1100 3306723.9700 37.3300 162 160 162
235757.9000 3306723.9600 37.2700 219 218 215
235757.5100 3306723.9600 37.3500 159 157 161
235757.4300 3306723.9500 37.2800 187 186 189
235757.1900 3306723.9500 37.3100 168 169 170
235756.3900 3306723.9400 37.2700 198 198 195
235756.0400 3306723.9300 37.2800 174 172 172
235755.4800 3306723.9200 37.2700 200 201 197
235755.2300 3306723.9200 37.3300 148 149 150
235754.8900 3306723.9100 37.3300 213 211 211
235754.5600 3306723.9100 37.2900 190 188 186
235754.4400 3306723.9100 37.3100 193 193 194
235753.6600 3306723.8900 37.2800 185 185 185
235753.0900 3306723.8800 37.3300 211 211 209
235752.8700 3306723.8800 37.2900 158 158 158
235752.1900 3306723.8700 37.3300 192 191 193
235752.0900 3306723.8600 37.3000 143 147 148
235751.9700 3306723.8600 37.3300 161 162 164
235753.2800 3306725.2200 37.2800 117 114 120
235753.0500 3306725.2200 37.2900 179 179 181
235752.3800 3306725.2000 37.2900 109 108 114
235752.2800 3306725.2000 37.2800 157 160 161
235757.6900 3306725.7900 37.0600 158 158 161
235757.4700 3306725.7900 37.0500 136 140 145
235756.9800 3306725.7800 37.0900 168 168 173
235756.6500 3306725.7700 37.0800 145 146 149
235756.3000 3306725.7600 37.0700 132 131 135
235755.4800 3306725.7400 37.0900 180 180 183
235755.3600 3306725.7400 37.1200 144 143 151
235754.8100 3306725.7300 37.0800 145 145 148
235754.4500 3306725.7200 37.1400 176 176 180
235754.2300 3306725.7200 37.1200 176 177 177
235753.4400 3306725.7000 37.1400 125 126 129
235753.3400 3306725.6900 37.1000 159 162 168
235753.0100 3306725.6900 37.0800 158 159 161
235752.8800 3306725.6800 37.1200 169 168 172
235751.8900 3306725.6600 37.1000 124 129 132
235751.7800 3306725.6600 37.0800 124 124 131
235756.4100 3306725.9400 37.0400 157 157 163
235755.9500 3306725.9300 37.0400 166 165 170
235755.6200 3306725.9200 37.0200 155 161 164
235755.0300 3306725.9100 37.0700 169 169 172
235754.2400 3306725.8900 37.0600 169 168 172
235753.9100 3306725.8800 37.0200 146 146 146
235753.6600 3306725.8800 37.0700 166 168 171
235753.3300 3306725.8700 37.0600 152 154 160
235753.2100 3306725.8700 37.1000 172 172 179
235758.4500 3306725.9200 36.9500 131 132 136
235755.5300 3306725.1300 37.4100 118 118 123
235755.4900 3306725.2200 37.2600 138 140 143
235755.2800 3306725.6800 37.1400 126 129 134
235755.5700 3306725.3500 37.1600 122 116 118
235755.4000 3306725.5200 37.0900 109 109 113
235754.6600 3306722.9000 36.9600 148 148 150
235752.7400 3306725.3800 37.2100 184 184 187
235754.8900 3306725.2900 37.2600 148 152 161
235756.9500 3306724.5300 37.5000 166 164 169
235753.6600 3306725.6000 37.1500 157 164 166
235754.4500 3306725.4700 37.1600 174 175 179
235753.9400 3306722.7700 36.8800 178 179 180
235754.6200 3306725.7400 37.1100 128 131 134
235754.6000 3306724.4900 37.5800 199 199 201
235759.0700 3306725.9100 37.0200 147 146 151
235759.0900 3306725.9000 37.0800 179 178 182
235758.5500 3306722.7600 36.8800 185 185 186
235757.2200 3306723.4000 37.1400 142 149 147
235758.7600 3306724.9600 37.3700 130 129 133
235756.4100 3306725.1100 37.2700 160 158 163
235754.5100 3306724.4900 37.5300 191 191 195
235756.1300 3306724.1800 37.4600 193 194 196
235752.9700 3306723.7200 37.3600 161 162 163
235757.2700 3306723.5000 37.2400 189 187 187
235753.9700 3306723.2600 37.1200 196 198 199
235757.2100 3306723.1200 37.0300 136 138 138
235753.0000 3306724.1500 37.4500 158 155 156
235753.1200 3306718.6300 37.5200 242 245 254
235755.8600 3306723.3600 37.0800 143 145 145
235754.7000 3306723.7600 37.2300 166 160 162
235758.9200 3306723.8300 37.2700 155 153 155
235755.7400 3306724.6500 37.4800 101 103 108
235754.2200 3306722.2600 36.7200 142 141 143
235752.6600 3306722.3600 36.7500 151 155 156
235753.6000 3306722.1800 36.7200 154 153 156
235758.2700 3306722.1800 36.7300 137 139 139
235751.9700 3306722.4700 36.7800 171 175 174
235759.0100 3306722.8200 36.9400 138 146 144
235756.9000 3306722.7800 36.9300 155 155 155
235755.9000 3306722.7600 36.8500 168 169 169
235751.7000 3306722.6900 36.8800 165 171 174
235758.4900 3306722.9700 36.9500 164 164 161
235755.2500 3306722.9100 36.9300 153 156 156
235756.3400 3306723.1000 36.9900 149 150 149
235753.0300 3306723.2000 37.0100 164 159 160
235758.7400 3306724.3400 37.6100 142 145 145
235759.1000 3306725.1400 37.3300 162 162 167
235755.0200 3306725.7500 37.0200 169 168 171
235755.1400 3306725.5800 37.1200 145 149 151
235758.4400 3306725.4700 37.1500 134 135 137
235757.1300 3306725.3400 37.1900 170 174 174
235752.0200 3306725.1500 37.2400 165 164 172
235755.7800 3306725.2600 37.1900 149 151 156
235757.6300 3306725.3100 37.2200 127 127 132
235754.5400 3306725.1700 37.2600 145 145 149
235754.8300 3306725.1100 37.2700 130 131 136
235752.9100 3306725.0100 37.3400 155 155 160
235756.8200 3306725.1200 37.2800 173 174 177
235758.6100 3306725.1700 37.2600 138 137 143
235752.0700 3306724.9200 37.3100 118 118 125
235753.2800 3306724.8400 37.3400 113 112 117
235757.0300 3306724.9400 37.3400 142 142 145
235754.2300 3306724.7700 37.3600 156 157 160
235754.1300 3306724.6900 37.4600 163 169 171
235751.7800 3306724.5100 37.5000 191 193 194
235757.5500 3306724.5700 37.4900 139 141 151
235753.5800 3306724.4000 37.6200 142 142 147
235755.2800 3306724.3400 37.6300 170 170 168
235752.9600 3306718.7300 37.5600 255 255 255
235752.1900 3306718.7900 37.6100 255 255 255
235753.4400 3306718.9700 37.5300 127 155 175
235752.8900 3306718.9800 37.5400 253 255 255
235757.8400 3306723.1300 37.0200 137 138 137
235757.5900 3306723.2700 37.0500 213 214 212
235754.2500 3306723.2200 37.0700 182 179 179
235752.1300 3306723.1800 37.0400 176 178 177
235755.6800 3306723.2600 37.0800 194 199 198
235753.6400 3306723.2300 37.0500 178 173 175
235757.9900 3306723.3700 37.1000 147 143 145
235752.8600 3306723.2900 37.0800 146 147 146
235753.7000 3306723.3600 37.1100 211 210 210
235754.3600 3306724.5800 37.5400 184 180 188
235754.6800 3306725.0200 37.4200 150 152 152
235754.8500 3306725.6100 37.1200 159 163 166
235756.3900 3306722.4800 36.7900 187 188 186
235756.9500 3306724.5500 37.5500 166 164 169
235757.3500 3306725.6600 37.0800 116 112 122
235757.1900 3306724.6400 37.5700 96 97 105
235756.7700 3306722.6900 36.8500 153 157 156
235751.8300 3306725.3400 37.2500 156 158 163
235751.9600 3306725.9200 37.0300 137 144 148
235751.9100 3306725.4300 37.2000 109 111 117
235751.9500 3306725.6000 37.1200 127 129 135
235752.4400 3306724.7400 37.4800 174 176 180
235752.5300 3306725.1200 37.3300 121 121 125
235752.2000 3306723.4200 37.1600 160 163 166
235752.5000 3306724.7100 37.4500 136 133 142
235752.5500 3306724.9100 37.3800 138 140 140
235752.4300 3306722.5400 36.8000 171 173 174
235752.5700 3306723.1300 37.0000 156 156 156
235753.0200 3306725.0500 37.3200 145 141 144
235753.0700 3306725.2700 37.2700 154 158 159
235752.6900 3306723.4200 37.1500 149 144 146
235752.9600 3306724.5900 37.5700 135 138 141
235752.9800 3306724.6700 37.4100 92 92 98
235751.8100 3306718.8200 37.6400 255 255 255
235751.8400 3306718.9800 37.5400 254 254 255
235753.1200 3306724.5700 37.5900 162 163 167
235753.2000 3306724.9500 37.4300 153 155 158
235753.2300 3306725.0600 37.3000 138 141 145
235753.4000 3306725.8500 37.0300 121 121 126
235751.8900 3306718.9200 36.7500 255 255 255
235753.6400 3306723.5800 37.2000 153 154 152
235754.0300 3306725.2600 37.3600 119 122 126
235754.1700 3306725.9200 36.9900 112 110 123
235753.6600 3306722.4300 36.7600 185 184 186
235754.1900 3306724.6900 37.5300 127 128 132
235754.4000 3306725.6000 37.1400 165 165 168
235754.4300 3306725.7700 37.0500 175 176 179
235753.9600 3306723.3600 37.1200 186 183 185
235754.2300 3306724.5000 37.5300 207 207 210
235754.6300 3306723.7700 37.2700 179 177 179
235754.8000 3306724.4800 37.5700 181 182 183
235754.9200 3306725.0300 37.3400 123 123 133
235754.7800 3306723.0400 36.9800 156 154 156
235755.1100 3306724.4500 37.5700 152 152 155
235755.6000 3306724.5200 37.5700 176 178 182
235755.6200 3306724.6500 37.4500 139 143 146
235755.8400 3306725.6400 37.1100 122 124 129
235755.6500 3306723.8600 37.2900 186 187 187
235755.8100 3306724.5400 37.5700 185 186 190
235756.1000 3306725.8800 37.0600 174 175 177
235756.3400 3306724.6800 37.4400 110 111 116
235756.5100 3306725.4300 37.1500 173 174 178
235756.7800 3306725.4400 37.1800 151 150 156
235756.9300 3306724.8000 37.4000 123 124 125
235757.0200 3306725.1800 37.2500 135 134 139
235756.7900 3306722.9300 36.9700 151 152 149
235757.2400 3306724.8900 37.3300 139 139 145
235757.2900 3306725.1100 37.2800 172 173 176
235757.2000 3306724.5400 37.5600 170 172 176
235757.8100 3306725.9400 37.0100 115 120 123
235757.2200 3306722.3400 36.7500 128 127 128
235757.3500 3306722.8600 36.9200 171 172 172
235757.7700 3306724.7000 37.3900 167 170 174
235757.8300 3306724.9600 37.3700 104 106 109
235757.8700 3306725.1000 37.2600 157 158 160
235758.2000 3306724.8300 37.3800 171 173 178
235758.2600 3306725.0700 37.3400 131 129 133
235758.3400 3306725.4400 37.2000 178 183 183
235758.3800 3306725.6000 37.0900 133 137 141
235758.4600 3306724.7300 37.5400 118 120 124
235758.4900 3306724.8600 37.4200 152 152 157
235758.1600 3306723.1900 37.0500 147 146 145
235758.8300 3306724.7200 37.4600 155 160 162
235758.9100 3306725.1000 37.3100 124 119 124
235758.8600 3306724.8900 37.4100 120 122 126
235758.9900 3306725.4400 37.1700 148 148 149
235758.6600 3306724.0100 37.3500 197 196 196
235758.7800 3306724.5300 37.5100 192 195 196
235758.8400 3306724.7700 37.4700 157 162 164
235752.6900 3306724.1300 37.4600 147 151 149
235754.2300 3306723.9600 37.3600 163 163 160
235754.6200 3306723.0100 37.0100 150 155 154
235756.3600 3306722.1900 36.7000 183 185 182
235758.5500 3306722.4200 36.7600 178 178 179
235758.5900 3306722.5900 36.8500 147 146 147
235756.7300 3306722.5500 36.8300 170 177 175
235755.0800 3306724.3300 37.6300 169 170 170
235756.7000 3306724.3800 37.6100 207 208 210
235758.2800 3306724.4200 37.5800 152 151 156
235753.2900 3306724.2300 37.5000 164 163 162
235754.0600 3306724.0700 37.4500 147 146 148
235754.2800 3306724.0400 37.4500 195 194 193
235755.9400 3306724.0900 37.4400 203 202 202
235755.9700 3306724.0400 37.3900 212 210 210
235752.8800 3306723.9300 37.4100 162 159 161
235754.6000 3306723.9800 37.4300 207 207 207
235752.2000 3306723.8000 37.3500 170 169 172
235752.4300 3306723.7900 37.3000 158 155 155
235754.6600 3306723.7700 37.3500 146 143 144
235756.2800 3306723.8200 37.3300 174 174 176
235751.8600 3306723.6500 37.3100 183 183 187
235756.9100 3306723.8000 37.3100 142 139 139
235752.1200 3306723.5300 37.2700 130 130 134
235755.4600 3306723.6300 37.2200 199 200 197
235752.1300 3306723.3400 37.1500 182 183 185
235751.6000 3306723.3200 37.1200 159 162 164
235755.9600 3306723.3500 37.0600 189 196 193
235752.2100 3306723.3300 37.1200 165 169 170
235756.7900 3306723.3700 37.0700 141 141 142
235754.0400 3306723.3300 37.0800 163 164 162
235752.2400 3306723.3100 37.1000 145 147 149
235758.1700 3306723.4400 37.1400 184 185 186
235757.2600 3306723.4200 37.0700 147 148 145
235756.1400 3306723.5200 37.1800 153 151 154
235752.5200 3306723.4700 37.1700 143 146 147
235751.6400 3306723.4500 37.1300 147 153 153
235757.1600 3306723.6100 37.1800 208 206 206
235755.3100 3306723.5800 37.1700 193 189 187
235752.6000 3306723.5400 37.1800 171 173 174
235753.4700 3306718.7900 36.9300 109 127 138
235751.7100 3306722.3800 36.7500 164 166 169
235751.5100 3306722.8600 36.9100 193 194 192
235755.6100 3306722.1400 36.7400 176 171 174
235755.4900 3306722.4000 36.7800 196 195 194
235756.2900 3306722.4000 36.8200 156 155 160
235756.2300 3306722.5300 36.8400 180 180 180
235756.1600 3306722.6800 36.8400 154 155 158
235756.0200 3306723.0300 36.9800 147 145 146
235757.6600 3306722.8500 36.9700 146 146 146
235757.9900 3306722.3300 36.7900 147 148 145
235758.4000 3306722.3400 36.8000 156 156 159
235758.6200 3306722.3400 36.8200 149 149 152
235754.7900 3306722.0600 36.7100 150 153 155
235755.4000 3306722.0800 36.7000 151 154 154
235756.8700 3306722.1300 36.7300 185 185 186
235757.8800 3306722.1700 36.7300 205 203 203
235758.0800 3306722.1700 36.7300 186 186 187
235758.4500 3306722.1900 36.7200 140 140 141
235754.9300 3306722.7900 36.8900 164 169 168
235754.9200 3306722.6900 36.8600 167 168 168
235754.9200 3306722.5800 36.8300 160 161 162
235754.9100 3306722.4700 36.8000 153 151 153
235753.8400 3306722.3400 36.7300 163 171 174
235753.0100 3306723.0200 36.9800 168 168 168
235752.9400 3306722.9300 36.9500 175 175 175
235752.6600 3306722.6100 36.7900 148 155 154
235751.8300 3306718.5200 36.8700 146 145 150
235758.9100 3306722.4200 36.7300 144 144 143
235758.2000 3306722.4100 36.7600 188 184 186
235757.3800 3306722.3900 36.7500 131 132 134
235757.1500 3306722.3900 36.7200 182 182 184
235756.9000 3306722.3900 36.7600 172 171 173
235756.2300 3306722.3700 36.7000 181 180 179
235755.8800 3306722.3700 36.7200 148 146 149
235755.6500 3306722.3600 36.7300 188 188 188
235755.1900 3306722.3500 36.7200 192 192 192
235754.7300 3306722.3500 36.7300 183 185 184
235754.6000 3306722.3500 36.7500 181 180 186
235753.2500 3306722.3200 36.7400 191 195 195
235752.8100 3306722.3100 36.7100 154 151 154
235752.7000 3306722.3100 36.7100 156 155 154
235752.4900 3306722.7000 36.8600 169 167 169
235751.8200 3306722.6900 36.8400 163 164 169
235759.1000 3306722.9800 36.9200 183 182 181
235758.9700 3306722.9800 36.9400 197 196 199
235758.8300 3306722.9800 36.9800 188 188 191
235752.3000 3306725.4700 37.1600 166 168 176
235752.0900 3306725.8500 37.0400 116 116 123
235753.7600 3306723.4200 37.1900 154 155 155
235753.4600 3306724.1300 37.4400 157 153 154
235753.3900 3306724.3400 37.5900 196 203 202
235753.0900 3306724.8800 37.4200 152 154 158
235754.2400 3306723.2400 37.1000 185 181 182
235754.1800 3306723.3700 37.1200 163 165 167
235753.8900 3306724.0700 37.3900 140 140 141
235755.9400 3306725.6000 37.0900 156 158 163
235756.5500 3306725.6200 37.0900 179 186 187
235751.7600 3306725.3500 37.1800 97 98 107
235751.9900 3306725.3600 37.1900 161 163 170
235753.0500 3306725.3900 37.1800 160 162 165
235753.8800 3306725.4100 37.1500 117 118 122
235754.3300 3306725.4300 37.1800 123 126 128
235755.1900 3306725.4500 37.2000 161 161 166
235755.9600 3306725.4700 37.1400 160 162 167
235756.5400 3306725.4900 37.1100 184 187 190
235756.9600 3306725.5000 37.1300 157 157 160
235757.9200 3306725.5300 37.0700 137 139 144
235758.7800 3306725.5500 37.1400 159 160 162
235751.6600 3306725.2800 37.2500 151 151 156
235751.8300 3306725.2900 37.2100 156 156 161
235752.2300 3306725.3000 37.1700 118 118 123
235752.9500 3306725.3200 37.2400 121 122 129
235754.3800 3306725.3600 37.1900 144 146 149
235755.2200 3306725.3800 37.1900 139 138 145
235755.6600 3306725.3900 37.2100 143 148 151
235756.8500 3306725.4300 37.1600 150 156 158
235757.0500 3306725.4300 37.1700 117 116 120
235757.2400 3306725.4400 37.1600 144 146 150
235751.9400 3306725.2000 37.2400 135 135 140
235752.1300 3306725.2000 37.2100 174 176 179
235753.6900 3306725.2400 37.2600 137 142 145
235753.8700 3306725.2500 37.2400 126 126 138
235754.0700 3306725.2500 37.2200 145 146 150
235754.2900 3306725.2600 37.2300 169 169 172
235754.9000 3306725.2800 37.2200 148 152 161
235756.7400 3306725.3300 37.2000 122 122 133
235756.9500 3306725.3400 37.2100 148 147 152
235756.3000 3306725.1500 37.2900 126 126 129
235757.2600 3306725.1800 37.2400 148 151 152
235757.8300 3306725.2000 37.2100 132 134 135
235758.8600 3306725.2200 37.2400 125 124 127
235751.6400 3306724.9700 37.3600 112 113 116
235752.2700 3306724.9900 37.3400 149 146 150
235753.2700 3306725.0200 37.2600 109 109 116
235752.5000 3306724.3700 37.6000 172 178 180
235752.9400 3306724.3800 37.6100 180 182 183
235753.1300 3306724.3800 37.5900 162 164 166
235754.6600 3306724.4300 37.6400 170 172 172
235755.0000 3306724.4400 37.5600 182 183 185
235756.4000 3306724.4800 37.5200 176 177 180
235756.8100 3306724.4900 37.5200 174 176 175
235757.0400 3306724.5000 37.5500 192 192 198
235757.6200 3306724.5100 37.5200 168 170 167
235758.5600 3306724.5400 37.4700 207 208 210
235751.5200 3306724.2300 37.4900 174 175 179
235752.7200 3306724.2600 37.6000 162 164 162
235753.7900 3306724.2900 37.6100 161 162 163
235754.0200 3306724.3000 37.6200 195 199 199
235754.2200 3306724.3100 37.6100 146 143 147
235754.6500 3306724.3200 37.6100 150 152 153
235756.3000 3306724.3700 37.6200 141 140 142
235756.4800 3306724.3700 37.5900 156 157 158
235756.8700 3306724.3800 37.5800 196 198 200
235757.9100 3306724.4100 37.6100 194 196 196
235758.5100 3306724.4300 37.6000 198 197 198
235752.2200 3306724.2000 37.5100 183 183 184
235752.4500 3306724.2000 37.5200 191 190 191
235753.1100 3306724.2200 37.5400 194 197 198
235753.9700 3306724.2500 37.5500 211 212 210
235754.2000 3306724.2500 37.5600 141 137 142
235755.2700 3306724.2800 37.5900 168 167 166
235756.5200 3306724.3200 37.5900 174 176 174
235756.9100 3306724.3300 37.5900 159 160 161
235757.3600 3306724.3400 37.6400 163 165 168
235757.9200 3306724.3600 37.5800 192 193 195
235758.1000 3306724.3600 37.5700 179 184 184
235758.7700 3306724.3800 37.6500 179 181 181
235752.2600 3306723.9100 37.4200 147 141 142
235752.4300 3306723.9200 37.3800 161 158 159
235753.1000 3306723.9400 37.4100 204 202 202
235753.5300 3306723.9500 37.4100 204 204 205
235754.3300 3306723.9700 37.3600 155 153 158
235755.2300 3306724.0000 37.4200 156 158 157
235755.4300 3306724.0000 37.4200 175 175 173
235757.2600 3306724.0600 37.4100 156 155 158
235757.4500 3306724.0600 37.4000 191 189 191
235757.7000 3306724.0700 37.4500 148 147 146
235758.6900 3306724.1000 37.4500 181 180 180
235757.7700 3306723.5600 37.2600 193 193 194
235758.1500 3306723.5700 37.2200 158 154 154
235752.8300 3306723.3600 37.1800 161 166 166
235754.1100 3306723.4000 37.1800 199 199 198
235754.9800 3306723.4300 37.2100 173 170 170
235755.3500 3306723.4400 37.1700 187 189 189
235755.7900 3306723.4500 37.1900 191 192 192
235756.2000 3306723.4700 37.1900 161 160 162
235757.6700 3306723.5100 37.2400 155 154 156
235757.8500 3306723.5200 37.2200 171 169 167
235751.6000 3306723.1800 37.1300 157 158 161
235752.4400 3306723.2100 37.1000 172 172 172
235752.6700 3306723.2200 37.1100 172 169 176
235753.1000 3306723.2300 37.1200 164 170 170
235754.6200 3306723.2800 37.1500 152 153 155
235755.0400 3306723.2900 37.1500 189 194 193
235755.8600 3306723.3100 37.1500 144 143 146
235757.5100 3306723.3600 37.1700 171 176 174
235758.1300 3306723.3800 37.1800 152 155 154
235758.2900 3306723.3900 37.1500 156 155 155
235752.1800 3306723.0500 37.0700 187 186 187
235752.4300 3306723.0600 37.0900 178 182 181
235752.6600 3306723.0600 37.1100 169 168 168
235753.0500 3306723.0800 37.0700 182 184 183
235753.4700 3306723.0900 37.0700 164 163 162
235754.9800 3306723.1300 37.1000 168 167 164
235755.8000 3306723.1600 37.0900 190 191 191
235756.4200 3306723.1800 37.1000 189 190 192
235756.7800 3306723.1900 37.0600 137 137 137
235757.0200 3306723.2000 37.0900 186 186 189
235758.0000 3306723.2300 37.0700 150 147 146
235759.0500 3306723.2600 37.1300 149 150 149
235757.2900 3306724.2600 37.4300 191 191 193
235757.2600 3306723.8400 37.2900 163 159 159
235757.2400 3306723.6400 37.2100 155 153 151
235757.2200 3306723.4400 37.0900 140 144 143
235757.2200 3306723.3300 37.0800 149 157 155
235756.1000 3306725.2200 37.3100 166 168 173
235756.0700 3306724.2200 37.4400 203 202 203
235756.0600 3306724.0200 37.3200 174 169 168
235756.0200 3306723.5000 37.1600 128 130 129
235752.6300 3306718.6700 37.5400 255 255 255
235752.1900 3306718.6600 37.5400 254 255 255
235751.8500 3306718.6500 37.5400 253 254 255
235751.7600 3306718.6500 37.4800 197 199 198
235752.6000 3306718.6000 37.4700 156 159 165
235752.4700 3306718.6100 37.5300 223 228 231
235751.9500 3306718.5700 37.0700 119 112 117
235753.1400 3306718.7100 37.5400 255 255 255
235753.0200 3306718.7100 37.5600 255 255 255
235752.9100 3306718.7000 37.5500 255 255 255
235752.6900 3306718.7000 37.5600 254 255 255
235753.5200 3306718.7400 37.5600 97 118 132
235753.4100 3306718.7400 37.5800 197 212 231
235753.3000 3306718.7400 37.5600 255 255 255
235752.8500 3306718.7300 37.5800 255 255 255
235752.6300 3306718.7300 37.5600 255 255 255
235752.0800 3306718.7200 37.5600 255 255 255
235751.7000 3306718.7000 37.3300 165 162 159
235752.9700 3306718.8000 37.5900 255 255 255
235752.8600 3306718.8000 37.6000 255 255 255
235752.3100 3306718.7900 37.6000 255 255 255
235752.0800 3306718.7800 37.6000 255 255 255
235753.3700 3306718.9000 37.5700 226 245 251
235753.2500 3306718.9000 37.5800 255 255 255
235753.0300 3306718.9000 37.5900 254 255 255
235752.2500 3306718.8900 37.5800 255 255 255
235751.9200 3306718.8800 37.6100 255 255 255
235753.4700 3306718.9300 37.5300 97 119 134
235758.3600 3306723.3100 37.0500 196 196 195
235757.8800 3306723.3000 37.0700 197 197 190
235757.5300 3306723.2900 37.0700 150 152 152
235757.4200 3306723.2900 37.0600 162 161 160
235756.4800 3306723.2800 37.1000 146 142 144
235756.2500 3306723.2700 37.0800 180 186 184
235755.5900 3306723.2600 37.0200 175 174 173
235755.4600 3306723.2600 37.0500 189 188 187
235755.0000 3306723.2500 37.0600 176 175 173
235754.7800 3306723.2500 37.0500 145 145 146
235757.5700 3306723.4000 37.1200 173 173 170
235754.3500 3306723.3600 37.1300 171 172 170
235758.2400 3306723.4000 37.1500 186 187 185
235753.0500 3306723.5400 37.1700 187 185 184
235752.7200 3306723.5400 37.1600 169 163 163
235752.4900 3306723.5300 37.2000 161 163 167
235752.0400 3306723.5300 37.2000 164 165 167
235751.9400 3306723.5200 37.1600 136 136 140
235757.6000 3306723.6600 37.2000 205 206 207
235756.5500 3306723.6500 37.2200 194 191 192
235755.3000 3306723.6300 37.1900 190 186 186
235754.8300 3306723.6200 37.2200 158 158 159
235754.4900 3306723.6200 37.2400 147 144 144
235754.2800 3306723.6100 37.1900 189 189 187
235754.0400 3306723.6100 37.2100 146 144 144
235752.4700 3306723.5800 37.2200 173 178 180
235758.9600 3306723.6800 37.2200 196 196 197
235758.8400 3306723.6700 37.2200 198 199 199
235758.6100 3306723.6700 37.2000 154 154 156
235758.4900 3306723.6700 37.2000 172 166 166
235757.9100 3306723.6600 37.1800 201 200 197
235757.6700 3306723.6500 37.2000 162 164 164
235756.7400 3306723.6400 37.2200 185 187 186
235756.5400 3306723.6300 37.1500 195 190 192
235756.1600 3306723.6300 37.2100 157 157 157
235755.9400 3306723.6300 37.2000 183 183 182
235755.8200 3306723.6300 37.2100 182 179 181
235753.3400 3306723.6900 37.2000 174 174 174
235753.1100 3306723.6900 37.2300 204 202 202
235752.7800 3306723.6800 37.2100 203 202 201
235752.5500 3306723.6800 37.2200 150 150 148
235752.1000 3306723.6700 37.2400 129 128 130
235751.7700 3306723.6700 37.2300 157 159 162
235758.7400 3306723.8000 37.2800 142 140 142
235755.1800 3306724.0700 37.3300 195 195 196
235755.0500 3306724.0700 37.3700 212 210 211
235754.8200 3306724.0700 37.3600 156 155 155
235754.6000 3306724.0600 37.3700 207 207 208
235753.8200 3306724.0500 37.3400 185 185 186
235753.3600 3306724.0400 37.3500 207 208 207
235753.2400 3306724.0400 37.3700 209 210 207
235753.0400 3306724.0300 37.3300 191 190 186
235752.4800 3306724.0200 37.3200 196 195 196
235751.7000 3306724.0100 37.3200 184 183 183
235758.9300 3306724.2400 37.4100 176 171 171
235758.5700 3306724.2300 37.4300 157 155 160
235758.3400 3306724.2300 37.4200 200 201 198
235757.8700 3306724.2200 37.4100 176 177 175
235757.7600 3306724.2200 37.4200 181 182 180
235757.0500 3306724.2100 37.4400 173 175 175
235756.4800 3306724.1900 37.4300 146 147 145
235756.0300 3306724.1900 37.4100 140 139 141
235755.9300 3306724.1800 37.3800 174 174 175
235755.6700 3306724.1800 37.4500 201 200 201
235755.0200 3306724.1700 37.3800 202 200 202
235754.3200 3306724.1500 37.4200 187 191 192
235754.2100 3306724.1500 37.4200 135 133 136
235753.5300 3306724.1400 37.4400 206 206 206
235753.0900 3306724.1300 37.4100 213 213 212
235752.6400 3306724.1300 37.4400 196 195 195
235752.3100 3306724.1200 37.4000 188 182 183
235752.1000 3306724.1100 37.4000 140 141 141
235751.9900 3306724.1100 37.3700 158 155 158
235751.7600 3306724.1100 37.4200 159 168 167
235758.2800 3306724.3700 37.5100 151 151 153
235757.7200 3306724.3500 37.4600 181 183 185
235757.5900 3306724.3500 37.4800 190 192 192
235757.4700 3306724.3500 37.5000 193 197 197
235757.0100 3306724.3400 37.4900 207 207 208
235756.9000 3306724.3400 37.4800 179 181 182
235754.3600 3306724.6300 37.5100 132 125 137
235754.1200 3306724.6200 37.5700 146 147 151
235753.9900 3306724.6200 37.6000 127 127 131
235753.6700 3306724.6100 37.5600 138 139 143
235753.2200 3306724.6100 37.5800 139 147 152
235753.1000 3306724.6000 37.5800 129 131 136
235752.3200 3306724.5900 37.6000 138 143 147
235752.0000 3306724.5800 37.5800 179 184 185
235756.7100 3306725.4600 37.2100 162 165 171
235756.5900 3306725.4600 37.2100 124 129 131
235755.9100 3306725.4500 37.1800 166 167 173
235755.5600 3306725.4400 37.1900 126 125 126
235754.9800 3306725.4300 37.2300 142 143 149
235754.8800 3306725.4200 37.1900 158 160 165
235754.5500 3306725.4100 37.1700 167 171 175
235754.0700 3306725.4100 37.2300 153 157 159
235753.1700 3306725.3900 37.2400 158 159 161
235752.9500 3306725.3800 37.2300 130 131 137
235752.2800 3306725.3700 37.2300 167 168 174
235752.0600 3306725.3600 37.2300 118 116 130
235759.1200 3306725.6000 37.1500 168 168 172
235758.3000 3306725.5800 37.1400 164 164 167
235757.8300 3306725.5700 37.1400 121 122 126
235757.3500 3306725.5600 37.1800 124 123 131
235756.9900 3306725.5500 37.2100 165 166 170
235756.3000 3306725.5300 37.2000 133 131 134
235755.9600 3306725.5300 37.2000 155 158 163
235755.7400 3306725.5200 37.1600 130 130 135
235755.6100 3306725.5200 37.2200 156 156 158
235754.7100 3306725.5000 37.1900 157 158 162
235754.1200 3306725.4900 37.2500 168 167 173
235753.9200 3306725.4800 37.1700 138 140 142
235753.5700 3306725.4700 37.2100 142 142 147
235753.1300 3306725.4600 37.2000 136 138 138
235752.7800 3306725.4600 37.2300 139 143 144
235752.4500 3306725.4500 37.2200 160 162 168
235751.5900 3306725.4200 37.1500 129 132 137
235752.6700 3306725.8500 37.0400 126 125 130
235752.4400 3306725.8500 37.0500 162 168 172
235751.9800 3306725.8400 37.1000 156 160 165
235751.8700 3306725.8400 37.1000 133 137 140
235751.6600 3306725.8300 37.0700 160 164 168
235758.1300 3306724.8900 37.4100 117 119 123
235755.4000 3306724.1900 37.3700 154 152 156
235755.8500 3306725.9400 37.0300 110 111 115
235757.5000 3306724.9300 37.3700 114 121 120
235757.2900 3306725.4100 37.2600 160 165 167
235755.3200 3306724.2000 37.3600 188 186 187
235754.9800 3306724.8600 37.4300 136 139 143
